# .PCD v0.7 - Point Cloud Data
VERSION 0.7
FIELDS x y z intensity
SIZE 4 4 4 4
TYPE F F F F
COUNT 1 1 1 1
WIDTH 751
HEIGHT 1
VIEWPOINT 0 0 0 1 0 0 0
POINTS 751
DATA ascii
0.3614839017391205 -1.3020122051239014 0.04280995950102806 10.0
0.4032231867313385 -1.2859035730361938 0.042383287101984024 10.0
0.4466865658760071 -1.2690355777740479 0.04733075946569443 9.0
0.483665406703949 -1.2551478147506714 0.039772775024175644 9.0
0.5286340713500977 -1.2374473810195923 0.050855882465839386 9.0
0.5714977383613586 -1.2204358577728271 0.058154378086328506 10.0
0.6112387180328369 -1.2050793170928955 0.06220651790499687 10.0
0.6179196238517761 -1.0745887756347656 0.07732684910297394 10.0
0.655090868473053 -1.0561832189559937 0.07801088690757751 10.0
0.6954723596572876 -1.0430361032485962 0.08419856429100037 10.0
0.7336142063140869 -1.0305606126785278 0.08656121790409088 10.0
0.7683714032173157 -1.019313931465149 0.08021759986877441 10.0
0.8068456053733826 -1.0066933631896973 0.08376125991344452 10.0
0.8439895510673523 -0.9946113228797913 0.08835963904857635 10.0
0.8830833435058594 -0.9818782210350037 0.0982111245393753 10.0
0.9116078615188599 -0.9730031490325928 0.06513414531946182 10.0
0.9497073292732239 -0.9603447914123535 0.07648906111717224 10.0
0.9864378571510315 -0.9483122229576111 0.08367007970809937 12.0
1.023708462715149 -0.9360806345939636 0.09644526988267899 10.0
1.0865018367767334 -1.0207853317260742 0.08811566978693008 16.0
1.1189531087875366 -1.0087088346481323 0.07742870599031448 10.0
1.1541075706481934 -0.9944797158241272 0.0920960083603859 13.0
1.1877728700637817 -0.981237530708313 0.09749814122915268 10.0
1.220445990562439 -0.9689013361930847 0.09356863796710968 21.0
1.2531588077545166 -0.9563992023468018 0.09020072966814041 16.0
1.2863482236862183 -0.9429073333740234 0.10237201303243637 13.0
1.318697452545166 -0.9309121966362 0.09017103910446167 16.0
1.3515266180038452 -0.9180235862731934 0.09351146966218948 26.0
1.383378267288208 -0.9020500779151917 0.09729384630918503 21.0
1.4168399572372437 -0.8884136080741882 0.08675675839185715 20.0
1.445687174797058 -0.86745285987854 0.0815063938498497 21.0
-17.34156608581543 -7.1193389892578125 1.2227720022201538 4.0
-10.081314086914062 -4.674148082733154 0.8245632648468018 2.0
-9.541596412658691 -4.493439674377441 0.7046063542366028 4.0
-9.399701118469238 -4.4447712898254395 0.5357840061187744 5.0
-9.492342948913574 -4.481468200683594 0.3318905830383301 5.0
-9.807140350341797 -4.5868072509765625 0.08119675517082214 7.0
-7.3300909996032715 -4.316082954406738 0.06113917753100395 6.0
-6.736323356628418 -4.081957817077637 0.05819133669137955 6.0
-6.1804609298706055 -3.864022970199585 0.06511633098125458 6.0
-5.783109188079834 -3.7093820571899414 0.04179348051548004 6.0
-5.257660865783691 -3.5063140392303467 0.07498697191476822 7.0
-4.948477268218994 -3.3859901428222656 0.05167921632528305 7.0
-4.623469352722168 -3.2575347423553467 0.044995151460170746 7.0
-4.3259100914001465 -3.1422226428985596 0.0402543805539608 7.0
-3.994652509689331 -3.0115668773651123 0.05617278814315796 8.0
-3.7870476245880127 -2.9309957027435303 0.034088023006916046 8.0
-1.2825430631637573 -1.7394236326217651 0.951083242893219 1.0
-2.9403977394104004 -2.317314624786377 0.06623587012290955 8.0
-2.7621262073516846 -2.2553603649139404 0.06622861325740814 8.0
-2.6189260482788086 -2.207181930541992 0.055081602185964584 8.0
-2.430410385131836 -2.141641139984131 0.07262405008077621 8.0
-2.3018696308135986 -2.097719669342041 0.06354094296693802 8.0
-2.1614317893981934 -2.0496459007263184 0.06507210433483124 8.0
-2.042680501937866 -2.009094715118408 0.05864749103784561 8.0
-1.9158978462219238 -1.9670571088790894 0.06036552041769028 9.0
-1.8186746835708618 -1.9339561462402344 0.04747993126511574 9.0
-1.7065874338150024 -1.8956034183502197 0.0489666722714901 15.0
-1.6059411764144897 -1.8613156080245972 0.04348599910736084 18.0
-0.5716926455497742 -1.6455795764923096 0.715979814529419 24.0
-0.5776873230934143 -1.6501983404159546 0.6577911972999573 25.0
-0.578633725643158 -1.653124213218689 0.6020073890686035 25.0
-0.5752173662185669 -1.6537913084030151 0.5492016673088074 25.0
-0.5876991748809814 -1.6630358695983887 0.4799881875514984 24.0
-0.5919932126998901 -1.667573094367981 0.4162464439868927 24.0
-0.5810161232948303 -1.6655478477478027 0.36496642231941223 20.0
-0.5792645812034607 -1.667567253112793 0.3035581111907959 16.0
-0.6030808091163635 -1.6808133125305176 0.21452470123767853 27.0
-0.6041613817214966 -1.6842737197875977 0.14408688247203827 27.0
-0.6005678772926331 -1.6861541271209717 0.07693437486886978 26.0
-0.5833890438079834 -1.6820483207702637 0.024359388276934624 36.0
-0.5520148873329163 -1.499887466430664 0.0424615740776062 9.0
-0.48886510729789734 -1.4787312746047974 0.042042288929224014 9.0
-0.43881815671920776 -1.461868405342102 0.028212687000632286 10.0
-0.37967100739479065 -1.441776156425476 0.02692338265478611 9.0
-0.3148835599422455 -1.4200204610824585 0.03479792922735214 9.0
-0.2568066716194153 -1.400315523147583 0.03649173676967621 9.0
-0.199615478515625 -1.3809126615524292 0.039893534034490585 10.0
-0.1477765142917633 -1.3638023138046265 0.03609498217701912 9.0
-0.09710714966058731 -1.3479540348052979 0.03435173258185387 10.0
-0.04761473834514618 -1.3283737897872925 0.033365413546562195 10.0
0.0042823804542422295 -1.3084172010421753 0.037676215171813965 9.0
0.05413593724370003 -1.2915904521942139 0.03882218524813652 10.0
0.1364913135766983 -1.3998632431030273 0.02848873846232891 9.0
0.1793232411146164 -1.3830050230026245 0.023524267598986626 9.0
0.22705383598804474 -1.3642666339874268 0.027871139347553253 9.0
0.2719717025756836 -1.3464668989181519 0.02893185056746006 9.0
0.3210645020008087 -1.327246069908142 0.03977092355489731 10.0
0.36469653248786926 -1.309739589691162 0.043051768094301224 10.0
0.4043029844760895 -1.294331431388855 0.03815072029829025 9.0
0.44771677255630493 -1.2771345376968384 0.04305315017700195 9.0
0.4884304702281952 -1.2610836029052734 0.04452398419380188 9.0
0.5313932299613953 -1.2440085411071777 0.05106208845973015 9.0
0.5741381645202637 -1.2266969680786133 0.05835136026144028 10.0
0.6137716174125671 -1.2110626697540283 0.06239503249526024 10.0
0.6195439696311951 -1.0805256366729736 0.0774887353181839 10.0
0.6582008004188538 -1.061305046081543 0.08286324143409729 10.0
0.6937944293022156 -1.0494942665100098 0.07488957792520523 10.0
0.7363963723182678 -1.0351828336715698 0.09145178645849228 10.0
0.7696067690849304 -1.0242018699645996 0.08034799993038177 10.0
0.8079924583435059 -1.0113126039505005 0.08388390392065048 10.0
0.8450518250465393 -0.9989706873893738 0.0884748175740242 10.0
0.8840571641921997 -0.9859631061553955 0.0983184427022934 10.0
0.9136028289794922 -0.9765141606330872 0.07010120898485184 10.0
0.9515383243560791 -0.9636138081550598 0.08146655559539795 10.0
0.9862375259399414 -0.9520101547241211 0.07885590195655823 10.0
1.024359107017517 -0.9391859173774719 0.09652431309223175 12.0
1.0877407789230347 -1.0234520435333252 0.08820280432701111 18.0
1.1207411289215088 -1.010683536529541 0.08244627714157104 12.0
1.1551618576049805 -0.9966745972633362 0.09216871112585068 15.0
1.188734769821167 -0.9831967949867249 0.09756362438201904 10.0
1.2213205099105835 -0.9706337451934814 0.0936272144317627 17.0
1.253944754600525 -0.9579043388366699 0.0902523621916771 12.0
1.2870408296585083 -0.9441787600517273 0.10241644084453583 16.0
1.3189387321472168 -0.9325435161590576 0.08023244142532349 10.0
1.3519362211227417 -0.9191041588783264 0.0885501578450203 23.0
1.3837828636169434 -0.902646541595459 0.09731694310903549 23.0
1.4171022176742554 -0.888588011264801 0.09176875650882721 22.0
1.445846676826477 -0.8676185607910156 0.0815141424536705 17.0
-17.03280258178711 -7.159087657928467 1.2408455610275269 3.0
-9.515787124633789 -4.570053577423096 0.7068327069282532 4.0
-9.505167007446289 -4.565561294555664 0.5173563957214355 8.0
-9.471330642700195 -4.559421539306641 0.3332919478416443 7.0
-9.785406112670898 -4.666999816894531 0.08258278667926788 5.0
-9.06479549407959 -4.419524192810059 0.03700075298547745 7.0
-8.225406646728516 -4.130927085876465 0.04088907316327095 6.0
-7.314673900604248 -4.381096839904785 0.06077795848250389 5.0
-6.7359843254089355 -4.148358345031738 0.05393395200371742 5.0
-6.163679599761963 -3.9191668033599854 0.06547634303569794 6.0
-5.77629280090332 -3.765425682067871 0.03926689177751541 6.0
-5.243351936340332 -3.5550179481506348 0.0749933272600174 7.0
-4.934994220733643 -3.432537794113159 0.051541365683078766 7.0
-4.615243911743164 -3.303629159927368 0.04311390593647957 7.0
-4.322795391082764 -3.1880433559417725 0.03648470342159271 7.0
-3.9750819206237793 -3.0478403568267822 0.059098463505506516 8.0
-3.1345813274383545 -2.419926166534424 0.05958624184131622 8.0
-2.947056293487549 -2.354118585586548 0.05859443172812462 8.0
-2.7690868377685547 -2.290874719619751 0.05825478211045265 8.0
-2.6135153770446777 -2.2371745109558105 0.05363007262349129 8.0
-2.429579019546509 -2.171785831451416 0.06870891153812408 8.0
-2.3053951263427734 -2.1284167766571045 0.057036031037569046 8.0
-2.16518235206604 -2.079326629638672 0.05832627788186073 8.0
-2.0466017723083496 -2.0379109382629395 0.05166954547166824 8.0
-1.9119892120361328 -1.9920873641967773 0.058418191969394684 9.0
-1.8109991550445557 -1.956878423690796 0.04814472049474716 9.0
-1.7031023502349854 -1.9191508293151855 0.04684194549918175 16.0
-1.6026545763015747 -1.8841480016708374 0.04127298668026924 17.0
-0.5472657680511475 -1.6515523195266724 0.7308809757232666 23.0
-0.5571566224098206 -1.657911777496338 0.6700642108917236 22.0
-0.5582744479179382 -1.6609166860580444 0.6145410537719727 30.0
-0.5550464391708374 -1.6616357564926147 0.5619887709617615 30.0
-0.5676681399345398 -1.6710383892059326 0.4930320680141449 26.0
-0.5756400227546692 -1.6772313117980957 0.42632919549942017 26.0
-0.5717446804046631 -1.6782493591308594 0.3686833381652832 27.0
-0.5734430551528931 -1.681797742843628 0.30400073528289795 22.0
-0.5904727578163147 -1.692240834236145 0.22176367044448853 27.0
-0.5916459560394287 -1.6957603693008423 0.15144723653793335 27.0
-0.5849116444587708 -1.696210265159607 0.0879262387752533 31.0
-0.5711220502853394 -1.6934881210327148 0.03194700554013252 35.0
-0.5473995208740234 -1.5139836072921753 0.042867422103881836 9.0
-0.48439881205558777 -1.4923875331878662 0.04243532940745354 9.0
-0.4375835657119751 -1.4763134717941284 0.02484937198460102 9.0
-0.37546736001968384 -1.4546743631362915 0.027294188737869263 9.0
-0.31382447481155396 -1.4335615634918213 0.031302738934755325 9.0
-0.25582611560821533 -1.4134314060211182 0.0329328216612339 9.0
-0.1987106204032898 -1.3936092853546143 0.03627299889922142 9.0
-0.1441211998462677 -1.3750826120376587 0.03641868010163307 10.0
-0.09356395900249481 -1.3588817119598389 0.03466537222266197 10.0
-0.044209398329257965 -1.3389567136764526 0.03366842120885849 10.0
0.007547757588326931 -1.318637728691101 0.03796818479895592 9.0
0.05728282034397125 -1.3014633655548096 0.03910401463508606 10.0
0.14039026200771332 -1.409160852432251 0.028780627995729446 10.0
0.18310286104679108 -1.3920050859451294 0.023806972429156303 10.0
0.23070210218429565 -1.3729333877563477 0.028143616393208504 9.0
0.2754948139190674 -1.3548204898834229 0.029194671660661697 9.0
0.32445383071899414 -1.33525550365448 0.040023237466812134 9.0
0.3679630756378174 -1.3174443244934082 0.04329465702176094 9.0
0.40544742345809937 -1.3027673959732056 0.03392037749290466 9.0
0.4488089084625244 -1.2852414846420288 0.03877745196223259 9.0
0.49135464429855347 -1.2679259777069092 0.04474034532904625 9.0
0.5341981649398804 -1.2505502700805664 0.051269203424453735 9.0
0.5750864744186401 -1.2338404655456543 0.053947579115629196 9.0
0.6163461208343506 -1.217028260231018 0.06258437782526016 10.0
0.619528591632843 -1.0870565176010132 0.07298177480697632 10.0
0.6581206321716309 -1.0675283670425415 0.07831814140081406 10.0
0.6937040090560913 -1.055445909500122 0.07030930370092392 10.0
0.7377448081970215 -1.0402913093566895 0.09158968925476074 10.0
0.7708762884140015 -1.029081106185913 0.08047918975353241 10.0
0.8091715574264526 -1.0159235000610352 0.08400730043649673 10.0
0.8461445569992065 -1.0033224821090698 0.08859070390462875 10.0
0.8850595355033875 -0.990041196346283 0.09842643141746521 10.0
0.9145346283912659 -0.9803918600082397 0.07020328938961029 10.0
0.9523807764053345 -0.9672248959541321 0.0815609022974968 10.0
0.9879316687583923 -0.9550420641899109 0.08384374529123306 10.0
1.0250314474105835 -0.9422865509986877 0.0966038703918457 10.0
1.0889983177185059 -1.026110053062439 0.08829029649496078 15.0
1.120642066001892 -1.0140595436096191 0.07265257835388184 10.0
1.1551154851913452 -0.9997496008872986 0.08234389871358871 12.0
1.1892272233963013 -0.9855632781982422 0.09267007559537888 10.0
1.2226145267486572 -0.9719756245613098 0.09865447133779526 25.0
1.2547411918640137 -0.9594038724899292 0.0903041884303093 12.0
1.2877423763275146 -0.9454453587532043 0.10246103256940842 19.0
1.3197365999221802 -0.9332985281944275 0.08525829017162323 16.0
1.3524593114852905 -0.919921338558197 0.08858092129230499 23.0
1.3841915130615234 -0.9032401442527771 0.09734010696411133 23.0
1.4173656702041626 -0.8887589573860168 0.09678070992231369 23.0
1.446007251739502 -0.8677831292152405 0.0815219059586525 18.0
-16.790334701538086 -7.218071460723877 1.2552787065505981 4.0
-9.48009204864502 -4.643187522888184 0.7103810906410217 3.0
-9.469551086425781 -4.638667106628418 0.5210633873939514 5.0
-9.459066390991211 -4.640544891357422 0.3330768346786499 7.0
-9.763102531433105 -4.747071266174316 0.08398274332284927 8.0
-9.002606391906738 -4.479878902435303 0.046931151300668716 7.0
-8.239115715026855 -4.211523532867432 0.034444186836481094 6.0
-7.2987775802612305 -4.4460649490356445 0.0604296550154686 5.0
-6.726166725158691 -4.211161136627197 0.05209975689649582 5.0
-6.1598687171936035 -3.9798367023468018 0.06200192868709564 6.0
-5.764613628387451 -3.819648504257202 0.03811374306678772 6.0
-5.2286906242370605 -3.603651762008667 0.07500830292701721 7.0
-4.925563335418701 -3.48087739944458 0.04989505186676979 7.0
-4.60230827331543 -3.347879409790039 0.0428369864821434 7.0
-4.310647487640381 -3.230250120162964 0.03606829419732094 7.0
-3.972510814666748 -3.0912790298461914 0.055028822273015976 8.0
-3.132044553756714 -2.455131769180298 0.05640837177634239 8.0
-2.936420440673828 -2.384901762008667 0.05949648842215538 8.0
-2.7631125450134277 -2.3219523429870605 0.05691291764378548 8.0
-2.5911598205566406 -2.2610604763031006 0.06129946932196617 8.0
-2.4326629638671875 -2.2034952640533447 0.06245025619864464 8.0
-2.3086774349212646 -2.159226655960083 0.05053997039794922 8.0
-2.1686971187591553 -2.109121322631836 0.05158911272883415 8.0
-2.0502939224243164 -2.0668418407440186 0.04470008611679077 8.0
-1.9078967571258545 -2.0171191692352295 0.05647609010338783 9.0
-1.8071157932281494 -1.9811944961547852 0.04611378535628319 9.0
-1.6994436979293823 -1.9427015781402588 0.044722434133291245 16.0
-1.5992000102996826 -1.9069855213165283 0.03906458988785744 14.0
-0.5228513479232788 -1.6572184562683105 0.7457756400108337 21.0
-0.5366145372390747 -1.6653739213943481 0.6823326349258423 20.0
-0.5379031896591187 -1.6684603691101074 0.6270700693130493 33.0
-0.5348621010780334 -1.6692336797714233 0.5747714638710022 33.0
-0.5547096133232117 -1.6819736957550049 0.4997727572917938 34.0
-0.559249997138977 -1.6866979598999023 0.43640902638435364 34.0
-0.5555049777030945 -1.6877530813217163 0.3789479732513428 30.0
-0.5573390126228333 -1.6913799047470093 0.31444889307022095 23.0
-0.5778039693832397 -1.7035304307937622 0.22900164127349854 33.0
-0.5790690779685974 -1.7071104049682617 0.15880665183067322 33.0
-0.5692136287689209 -1.7060848474502563 0.09891574829816818 30.0
-0.5587934851646423 -1.7047945261001587 0.039533764123916626 34.0
-0.5426856875419617 -1.5280472040176392 0.04327542334794998 10.0
-0.47983741760253906 -1.506012201309204 0.0428304485976696 10.0
-0.4331376850605011 -1.4896153211593628 0.02523491531610489 10.0
-0.37421855330467224 -1.4686802625656128 0.023867595940828323 9.0
-0.3096790611743927 -1.4459997415542603 0.031662918627262115 9.0
-0.2547474801540375 -1.4265621900558472 0.02937721461057663 9.0
-0.19484609365463257 -1.40524423122406 0.03660954535007477 9.0
-0.14318935573101044 -1.3873929977416992 0.03273984417319298 10.0
-0.0899445116519928 -1.3697842359542847 0.03498067706823349 10.0
-0.04073039069771767 -1.349515676498413 0.03397304564714432 10.0
0.013501266948878765 -1.3278502225875854 0.04240668565034866 10.0
0.06049857288599014 -1.3113138675689697 0.039387356489896774 10.0
0.14195260405540466 -1.4196027517318726 0.024847470223903656 10.0
0.18460731208324432 -1.4021258354187012 0.019822487607598305 10.0
0.23441073298454285 -1.3815743923187256 0.028417302295565605 9.0
0.27907615900039673 -1.3631491661071777 0.029458655044436455 9.0
0.32789891958236694 -1.3432409763336182 0.0402766652405262 9.0
0.3712833523750305 -1.325126051902771 0.043538618832826614 9.0
0.4106695353984833 -1.309168815612793 0.03862061724066734 9.0
0.45190194249153137 -1.292360782623291 0.03900400176644325 9.0
0.49245595932006836 -1.2757165431976318 0.040423184633255005 9.0
0.5370487570762634 -1.2570722103118896 0.05147722736001015 9.0
0.5760896801948547 -1.2409911155700684 0.04954548925161362 9.0
0.6189623475074768 -1.2229756116867065 0.06277455389499664 9.0
0.6195619106292725 -1.093600869178772 0.06847645342350006 9.0
0.6580865383148193 -1.0737651586532593 0.07377437502145767 9.0
0.6967262625694275 -1.0603011846542358 0.07518354803323746 10.0
0.739128828048706 -1.0453901290893555 0.09172841161489487 10.0
0.7707924246788025 -1.0344549417495728 0.07583390921354294 10.0
0.80907142162323 -1.021003246307373 0.07933029532432556 10.0
0.8472675681114197 -1.0076665878295898 0.08870730549097061 10.0
0.8860902786254883 -0.9941121339797974 0.09853508323431015 10.0
0.9165775775909424 -0.9838641285896301 0.07517071813344955 10.0
0.9542567133903503 -0.9704580307006836 0.08653897047042847 10.0
0.9887137413024902 -0.9583989977836609 0.08393142372369766 10.0
1.0257253646850586 -0.9453824162483215 0.09668395668268204 10.0
1.089568853378296 -1.0292682647705078 0.08345449715852737 16.0
1.1212010383605957 -1.0169700384140015 0.06779681891202927 10.0
1.1573164463043213 -1.0010420083999634 0.09231496602296829 11.0
1.1906993389129639 -0.9870948791503906 0.09769534319639206 10.0
1.2235110998153687 -0.9736917614936829 0.09871335327625275 23.0
1.2558784484863281 -0.9605402946472168 0.09533253312110901 15.0
1.2881970405578613 -0.9470339417457581 0.09752283245325089 12.0
1.3205389976501465 -0.9340447187423706 0.0902843326330185 14.0
1.3530925512313843 -0.9204698204994202 0.09360355883836746 25.0
1.3845733404159546 -0.9040576219558716 0.09236833453178406 20.0
1.4177690744400024 -0.8895033597946167 0.0868043377995491 22.0
1.4460570812225342 -0.8678047060966492 0.08652657270431519 23.0
-16.641910552978516 -7.307839870452881 1.264594554901123 7.0
-9.86283016204834 -4.865780830383301 0.8482949733734131 3.0
-9.467227935791016 -4.724411487579346 0.7106657028198242 3.0
-9.42414379119873 -4.708102226257324 0.5262471437454224 3.0
-9.45084285736084 -4.723353862762451 0.33206504583358765 32.0
-9.744855880737305 -4.82868766784668 0.08450309187173843 7.0
-9.013896942138672 -4.566187858581543 0.041304878890514374 6.0
-8.24298095703125 -4.289153575897217 0.030127882957458496 6.0
-7.2868828773498535 -4.512895584106445 0.058971207588911057 5.0
-6.706945896148682 -4.270174026489258 0.05268332362174988 5.0
-6.151142120361328 -4.038702011108398 0.05982309952378273 6.0
-5.752530574798584 -3.8738515377044678 0.03697139024734497 6.0
-5.240070819854736 -3.663571834564209 0.06640862673521042 7.0
-4.9113945960998535 -3.5273256301879883 0.04977444186806679 7.0
-4.589051246643066 -3.39206862449646 0.04256821796298027 7.0
-4.298193454742432 -3.272401809692383 0.035659488290548325 7.0
-3.9867892265319824 -3.1422464847564697 0.043975431472063065 8.0
-3.133512020111084 -2.4919679164886475 0.05118061974644661 8.0
-2.9382855892181396 -2.4203407764434814 0.0540071502327919 8.0
-2.761115789413452 -2.3545827865600586 0.053371530026197433 8.0
-2.5561554431915283 -2.2800378799438477 0.07580108195543289 8.0
-2.4272255897521973 -2.2322332859039307 0.060901518911123276 8.0
-2.3035168647766113 -2.1870901584625244 0.04889523237943649 8.0
-2.163851261138916 -2.135996103286743 0.04984482750296593 8.0
-2.045708417892456 -2.0928797721862793 0.04286196082830429 8.0
-1.9036204814910889 -2.0421502590179443 0.054538942873477936 9.0
-1.8030534982681274 -2.005511522293091 0.044087935239076614 9.0
-1.6956114768981934 -1.9662543535232544 0.0426078736782074 14.0
-1.5917192697525024 -1.928378701210022 0.03969401493668556 10.0
-0.5058882236480713 -1.6659340858459473 0.7548817992210388 21.0
-0.5160635113716125 -1.6725850105285645 0.6945964097976685 25.0
-0.5284052491188049 -1.6806927919387817 0.6305289268493652 27.0
-0.5254116058349609 -1.6814719438552856 0.5782938003540039 27.0
-0.5452288389205933 -1.6943800449371338 0.5033634305000305 36.0
-0.5532777905464172 -1.7007622718811035 0.43685266375541687 36.0
-0.5460982322692871 -1.7002240419387817 0.38266435265541077 33.0
-0.5513504147529602 -1.705454707145691 0.3148932158946991 24.0
-0.5750746726989746 -1.7193061113357544 0.22605730593204498 34.0
-0.5729914903640747 -1.7213674783706665 0.15925703942775726 34.0
-0.5599257946014404 -1.7187824249267578 0.10287734121084213 34.0
-0.5495769381523132 -1.7174506187438965 0.043550267815589905 28.0
-0.5410842895507812 -1.5432969331741333 0.04005127772688866 12.0
-0.4783342480659485 -1.520804524421692 0.03953757882118225 12.0
-0.4255034327507019 -1.5017062425613403 0.029367348179221153 10.0
-0.36982765793800354 -1.4815404415130615 0.024242959916591644 10.0
-0.3054470121860504 -1.4584087133407593 0.03202497586607933 10.0
-0.24773474037647247 -1.437470555305481 0.03363118693232536 10.0
-0.19375787675380707 -1.4179489612579346 0.03299436345696449 9.0
-0.13937008380889893 -1.3986414670944214 0.03306756168603897 10.0
-0.08898254483938217 -1.3817180395126343 0.03124620020389557 9.0
-0.039850279688835144 -1.3610800504684448 0.030180849134922028 9.0
0.01429202500730753 -1.3390089273452759 0.03855680674314499 10.0
0.06123688444495201 -1.3221232891082764 0.035482414066791534 10.0
0.1459885686635971 -1.4288625717163086 0.025142502039670944 9.0
0.18851971626281738 -1.4110894203186035 0.020108237862586975 9.0
0.2359146922826767 -1.3913285732269287 0.024382706731557846 9.0
0.2805159091949463 -1.3725664615631104 0.0253739170730114 9.0
0.329266756772995 -1.3522908687591553 0.03614216670393944 9.0
0.37258994579315186 -1.333846926689148 0.03935660049319267 9.0
0.41393038630485535 -1.3165535926818848 0.038857098668813705 9.0
0.4569767117500305 -1.2984488010406494 0.04373140633106232 9.0
0.49548158049583435 -1.2825312614440918 0.04064187780022621 9.0
0.5399447083473206 -1.2635740041732788 0.05168614163994789 9.0
0.5788722634315491 -1.2472213506698608 0.049745891243219376 10.0
0.6199648380279541 -1.229804277420044 0.058334190398454666 9.0
0.6213176250457764 -1.0995277166366577 0.06864185631275177 10.0
0.6597036719322205 -1.0794225931167603 0.07393059879541397 10.0
0.6967176795005798 -1.0662554502487183 0.07060564309358597 10.0
0.7390908002853394 -1.0510194301605225 0.08711566030979156 10.0
0.7735172510147095 -1.038812279701233 0.0807439312338829 10.0
0.811626136302948 -1.0251202583312988 0.08425632864236832 10.0
0.8471860885620117 -1.0124636888504028 0.08400145173072815 10.0
0.887149453163147 -0.9981757402420044 0.09864439815282822 10.0
0.9175613522529602 -0.9877199530601501 0.07527384161949158 10.0
0.9561538100242615 -0.9736689925193787 0.09151721000671387 10.0
0.9885889291763306 -0.9621031880378723 0.07911951094865799 10.0
1.0272948741912842 -0.9481477737426758 0.10168047994375229 10.0
1.0908663272857666 -1.0319143533706665 0.08354288339614868 13.0
1.1236648559570312 -1.018430471420288 0.07775188982486725 12.0
1.1578633785247803 -1.0036677122116089 0.08744018524885178 11.0
1.1917020082473755 -0.9890335202217102 0.09776157140731812 11.0
1.2244195938110352 -0.9754016399383545 0.09877245873212814 22.0
1.256693959236145 -0.9620253443717957 0.0953846126794815 12.0
1.2889177799224854 -0.9482933282852173 0.09756782650947571 14.0
1.3208104372024536 -0.9356765151023865 0.08034659177064896 13.0
1.3535226583480835 -0.9215445518493652 0.08864271640777588 25.0
1.38499116897583 -0.9046466946601868 0.09239166229963303 20.0
1.4180837869644165 -0.8898622989654541 0.08682025969028473 22.0
1.4462196826934814 -0.8679668307304382 0.08653433620929718 17.0
-16.48375129699707 -7.392395973205566 1.2743898630142212 9.0
-9.811090469360352 -4.9360127449035645 0.8535110950469971 2.0
-9.453761100769043 -4.8056416511535645 0.7109675407409668 6.0
-9.392221450805664 -4.782216548919678 0.5292335152626038 6.0
-9.437366485595703 -4.804524898529053 0.33188530802726746 40.0
-9.716785430908203 -4.906834125518799 0.08682335913181305 8.0
-8.973877906799316 -4.634154796600342 0.04638651758432388 6.0
-8.237062454223633 -4.363615989685059 0.027934031561017036 8.0
-7.274482727050781 -4.57973575592041 0.05752701312303543 6.0
-6.7050981521606445 -4.336836338043213 0.04847376048564911 6.0
-6.128674030303955 -4.091798782348633 0.06149573251605034 6.0
-5.740044116973877 -3.9280319213867188 0.03584001958370209 6.0
-5.220241546630859 -3.710319757461548 0.06788261979818344 7.0
-4.8881635665893555 -3.56986927986145 0.052691180258989334 7.0
-4.575473308563232 -3.436194896697998 0.04230707511305809 7.0
-4.289744853973389 -3.316399097442627 0.03358951210975647 7.0
-3.996338129043579 -3.191632032394409 0.03468853607773781 8.0
-0.48766714334487915 -1.6421194076538086 1.4269498586654663 9.0
-0.4746948778629303 -1.638008952140808 1.3932528495788574 18.0
-0.4610792398452759 -1.633999228477478 1.359792709350586 18.0
-3.1261708736419678 -2.525668144226074 0.05007774755358696 8.0
-2.9271883964538574 -2.451061725616455 0.05492104962468147 9.0
-2.754676103591919 -2.3856637477874756 0.05204314738512039 8.0
-2.5460433959960938 -2.308091402053833 0.07663502544164658 8.0
-2.42570161819458 -2.2625319957733154 0.05700923502445221 8.0
-2.3022403717041016 -2.2165040969848633 0.04483576864004135 8.0
-2.1628594398498535 -2.16441011428833 0.04561465233564377 8.0
-2.036919355392456 -2.1173832416534424 0.04358914494514465 8.0
-1.8951870203018188 -2.0656614303588867 0.055236686021089554 9.0
-1.79487943649292 -2.0283238887786865 0.0447646901011467 9.0
-1.6877143383026123 -1.9883182048797607 0.04326217994093895 17.0
-1.5879367589950562 -1.9511936902999878 0.037494707852602005 10.0
-0.48519113659858704 -1.6727458238601685 0.7668750882148743 25.0
-0.5028310418128967 -1.6829214096069336 0.7009434700012207 28.0
-0.5188323259353638 -1.6928316354751587 0.6339882612228394 28.0
-0.5230280756950378 -1.696926474571228 0.5756471157073975 28.0
-0.5427160263061523 -1.7099719047546387 0.5006588697433472 35.0
-0.547207236289978 -1.7147843837738037 0.4372982680797577 35.0
-0.5468870997428894 -1.7174127101898193 0.3765645921230316 31.0
-0.5520111322402954 -1.722656011581421 0.3086736500263214 21.0
-0.5722250938415527 -1.7350865602493286 0.2231167107820511 33.0
-0.5700834393501282 -1.7371267080307007 0.15625613927841187 33.0
-0.5569901466369629 -1.734442114830017 0.09981539100408554 34.0
-0.5434432625770569 -1.731524109840393 0.04399866238236427 21.0
-0.5361666083335876 -1.5573163032531738 0.040464188903570175 17.0
-0.47357505559921265 -1.5343867540359497 0.03993746638298035 17.0
-0.42088016867637634 -1.5149222612380981 0.02975624054670334 10.0
-0.3653471767902374 -1.4943695068359375 0.024620257318019867 10.0
-0.3011283874511719 -1.4707876443862915 0.032388899475336075 9.0
-0.24647395312786102 -1.4505863189697266 0.030080441385507584 9.0
-0.1897241473197937 -1.4295495748519897 0.03333502635359764 9.0
-0.13547231256961823 -1.4098628759384155 0.033396974205970764 10.0
-0.08247781544923782 -1.3915120363235474 0.03561623767018318 10.0
-0.03355152904987335 -1.3705590963363647 0.03458709269762039 10.0
0.01777070388197899 -1.349158763885498 0.03885343298316002 10.0
0.06713598221540451 -1.3309463262557983 0.03995852917432785 10.0
0.15008915960788727 -1.4380937814712524 0.025438807904720306 9.0
0.19249458611011505 -1.4200254678726196 0.020395219326019287 9.0
0.23975102603435516 -1.3999335765838623 0.024659303948283195 9.0
0.28422048687934875 -1.3808603286743164 0.025640713050961494 10.0
0.3349560499191284 -1.3591387271881104 0.04078681766986847 9.0
0.3780842423439026 -1.340419054031372 0.044029708951711655 9.0
0.41524943709373474 -1.324966311454773 0.03463124856352806 9.0
0.4563109874725342 -1.307557463645935 0.034960851073265076 9.0
0.5004130005836487 -1.288327932357788 0.04539508372545242 9.0
0.5428860783576965 -1.2700554132461548 0.05189594626426697 9.0
0.5799798965454102 -1.254372000694275 0.04534675553441048 10.0
0.6210199594497681 -1.2366392612457275 0.05389543995261192 9.0
0.6231147050857544 -1.105441927909851 0.06880819797515869 10.0
0.6613602042198181 -1.0850684642791748 0.0740877166390419 10.0
0.6967533826828003 -1.072222113609314 0.06602947413921356 10.0
0.7405490279197693 -1.0561095476150513 0.08725631237030029 10.0
0.7735071182250977 -1.0441886186599731 0.07610078901052475 10.0
0.8129015564918518 -1.0297054052352905 0.08438194543123245 10.0
0.8483723402023315 -1.016801118850708 0.08411970734596252 10.0
0.8882369995117188 -1.0022318363189697 0.09875436872243881 10.0
0.9174923300743103 -0.9919845461845398 0.07051333039999008 10.0
0.9560633897781372 -0.9776335954666138 0.08673020452260971 10.0
0.9884911775588989 -0.9658165574073792 0.07430878281593323 10.0
1.0280303955078125 -0.9512267112731934 0.10176140815019608 10.0
1.0921822786331177 -1.0345512628555298 0.08363161236047745 16.0
1.1242603063583374 -1.0213295221328735 0.07289693504571915 10.0
1.1589810848236084 -1.0058372020721436 0.08751418441534042 10.0
1.1922420263290405 -0.9913921356201172 0.09286921471357346 10.0
1.2253400087356567 -0.9771050810813904 0.09883177280426025 20.0
1.2571932077407837 -0.9638686776161194 0.09046076983213425 13.0
1.2896473407745361 -0.9495476484298706 0.09761296957731247 11.0
1.321625828742981 -0.9364116787910461 0.08537255227565765 15.0
1.353960633277893 -0.9226189851760864 0.08368208259344101 23.0
1.3854131698608398 -0.9052327871322632 0.09241504967212677 20.0
1.4184011220932007 -0.89021897315979 0.08683620393276215 19.0
1.4463834762573242 -0.8681278228759766 0.08654211461544037 22.0
-16.49355697631836 -7.538364410400391 1.2751283645629883 3.0
-9.754273414611816 -5.003969669342041 0.8593024611473083 4.0
-9.425773620605469 -4.881633281707764 0.7132434248924255 6.0
-9.382939338684082 -4.864784240722656 0.5285653471946716 6.0
-9.437137603759766 -4.890917778015137 0.32928651571273804 39.0
-9.711188316345215 -4.9934563636779785 0.0846993699669838 7.0
-8.938008308410645 -4.703474044799805 0.05050318315625191 6.0
-8.248873710632324 -4.445065021514893 0.02155952714383602 7.0
-7.2704854011535645 -4.650533199310303 0.0538555383682251 5.0
-6.707156181335449 -4.405611515045166 0.043081995099782944 5.0
-6.119085788726807 -4.150630950927734 0.05934063345193863 6.0
-5.731547832489014 -3.9841437339782715 0.03336234390735626 6.0
-5.1825971603393555 -3.74910831451416 0.0751039981842041 7.0
-4.882045745849609 -3.6200110912323 0.04955798014998436 7.0
-4.561574935913086 -3.4802560806274414 0.04205372929573059 7.0
-4.280963897705078 -3.3603978157043457 0.03152849152684212 7.0
-0.4985792934894562 -1.6613750457763672 1.4595448970794678 21.0
-0.48611682653427124 -1.6574045419692993 1.425551414489746 21.0
-0.4647206664085388 -1.6493890285491943 1.3955745697021484 28.0
-0.45116814970970154 -1.645300269126892 1.362187385559082 28.0
-3.1228320598602295 -2.560994863510132 0.046925198286771774 8.0
-2.9200937747955322 -2.4833412170410156 0.053709037601947784 9.0
-2.714540719985962 -2.4037342071533203 0.06835465878248215 8.0
-2.5066895484924316 -2.3247830867767334 0.09340514987707138 8.0
-2.4198312759399414 -2.2912790775299072 0.055473167449235916 8.0
-2.2966597080230713 -2.244380235671997 0.04320317506790161 8.0
-2.1576085090637207 -2.1913018226623535 0.043881937861442566 8.0
-2.035963773727417 -2.1449432373046875 0.03920123726129532 8.0
-1.8865896463394165 -2.0891127586364746 0.05593790113925934 10.0
-1.7904683351516724 -2.0526106357574463 0.04274812340736389 10.0
-1.675782322883606 -2.0088088512420654 0.04668285325169563 16.0
-1.5801481008529663 -1.9725078344345093 0.03813130035996437 9.0
-0.47188258171081543 -1.6827665567398071 0.7730846405029297 32.0
-0.4931994676589966 -1.6948254108428955 0.7043339014053345 29.0
-0.5055810213088989 -1.703179955482483 0.6404680013656616 28.0
-0.5169662237167358 -1.7107099294662476 0.5760878324508667 28.0
-0.5400842428207397 -1.725571632385254 0.49795764684677124 39.0
-0.5445016026496887 -1.7304097414016724 0.43453627824783325 39.0
-0.5441220998764038 -1.7330292463302612 0.37374114990234375 34.0
-0.5491682887077332 -1.7383025884628296 0.30579107999801636 22.0
-0.5758792161941528 -1.75404953956604 0.21339517831802368 33.0
-0.5768319964408875 -1.757595419883728 0.14290110766887665 33.0
-0.5571402907371521 -1.7516531944274902 0.09324559569358826 29.0
-0.5466671586036682 -1.75014066696167 0.03374532237648964 19.0
-0.5311510562896729 -1.571300983428955 0.04087919369339943 21.0
-0.4687211215496063 -1.5479353666305542 0.040339380502700806 21.0
-0.4161646366119385 -1.5281057357788086 0.03014710731804371 15.0
-0.36077719926834106 -1.507167100906372 0.0249994695186615 10.0
-0.2996862232685089 -1.4843182563781738 0.028904350474476814 9.0
-0.2451145499944687 -1.4637147188186646 0.02653273567557335 9.0
-0.18560956418514252 -1.4411215782165527 0.033677421510219574 9.0
-0.13427723944187164 -1.4221735000610352 0.029725592583417892 10.0
-0.08135031163692474 -1.4034326076507568 0.03188618645071983 10.0
-0.03251121938228607 -1.382111668586731 0.030799202620983124 10.0
0.01872255839407444 -1.3603259325027466 0.035008277744054794 10.0
0.07055717706680298 -1.3407273292541504 0.040246330201625824 10.0
0.15663208067417145 -1.4460721015930176 0.029961032792925835 10.0
0.19884663820266724 -1.4277352094650269 0.024950217455625534 10.0
0.24364741146564484 -1.4085115194320679 0.02493707276880741 9.0
0.28798288106918335 -1.38912832736969 0.025908635929226875 9.0
0.3385675251483917 -1.367050290107727 0.041043512523174286 9.0
0.3815646767616272 -1.348029375076294 0.04427681118249893 9.0
0.418619841337204 -1.3323194980621338 0.034870218485593796 10.0
0.4595589339733124 -1.3146246671676636 0.03519076853990555 9.0
0.5016753077507019 -1.2960963249206543 0.041082046926021576 9.0
0.5458725094795227 -1.2765161991119385 0.052106622606515884 9.0
0.5828551650047302 -1.260575532913208 0.045549266040325165 9.0
0.623771607875824 -1.2425552606582642 0.054088834673166275 10.0
0.6232869625091553 -1.11199951171875 0.0643068253993988 10.0
0.6614584922790527 -1.0913194417953491 0.06954821199178696 10.0
0.6983577013015747 -1.0776113271713257 0.06618010252714157 10.0
0.7420427799224854 -1.0611894130706787 0.08739776909351349 10.0
0.7749153971672058 -1.0490409135818481 0.07623538374900818 10.0
0.8142089247703552 -1.034281611442566 0.08450829982757568 10.0
0.8495887517929077 -1.0211302042007446 0.08423865586519241 10.0
0.8893527388572693 -1.0062801837921143 0.09886498749256134 10.0
0.9185320734977722 -0.9958346486091614 0.0706179291009903 10.0
0.9560021162033081 -0.9816076755523682 0.08194420486688614 10.0
0.9902737736701965 -0.9688034653663635 0.07929801195859909 10.0
1.027936577796936 -0.954639732837677 0.09692727774381638 10.0
1.0928198099136353 -1.037705659866333 0.07879739254713058 12.0
1.1248779296875 -1.0242305994033813 0.06804265826940536 10.0
1.160662055015564 -1.0075355768203735 0.09253644943237305 13.0
1.1932740211486816 -0.9933208227157593 0.09293608367443085 10.0
1.2262723445892334 -0.9788020849227905 0.09889129549264908 20.0
1.2580311298370361 -0.9653454422950745 0.09051331877708435 15.0
1.2903856039047241 -0.950796902179718 0.09765825420618057 14.0
1.3224457502365112 -0.9371379017829895 0.09039869904518127 15.0
1.354507565498352 -0.9234228730201721 0.08371326327323914 26.0
1.3858109712600708 -0.9060462713241577 0.08744413405656815 22.0
1.4186725616455078 -0.8903791308403015 0.09184817969799042 21.0
1.446548342704773 -0.8682876229286194 0.08654990792274475 18.0
-9.854695320129395 -5.13192081451416 0.8456281423568726 2.0
-9.415763854980469 -4.964543342590332 0.7129250168800354 6.0
-9.354565620422363 -4.940317153930664 0.530843198299408 6.0
-9.445443153381348 -4.981046676635742 0.3250884711742401 38.0
-9.695744514465332 -5.076665878295898 0.08437681943178177 8.0
-8.929146766662598 -4.783050060272217 0.048811908811330795 6.0
-8.241772651672363 -4.519824028015137 0.019405169412493706 8.0
-7.252604007720947 -4.715439319610596 0.053562212735414505 5.0
-6.695384502410889 -4.4685845375061035 0.04130691662430763 5.0
-6.091434478759766 -4.201505661010742 0.062308259308338165 6.0
-5.700710296630859 -4.030340194702148 0.03767981752753258 6.0
-5.197042942047119 -3.8113367557525635 0.06511282920837402 7.0
-4.8712029457092285 -3.6682229042053223 0.04794913902878761 7.0
-4.547356128692627 -3.524250030517578 0.04180813208222389 7.0
-4.271849155426025 -3.4043943881988525 0.029477357864379883 8.0
-0.4883880019187927 -1.6728593111038208 1.4617210626602173 34.0
-0.4759860932826996 -1.6688177585601807 1.4278017282485962 34.0
-0.45888084173202515 -1.6626046895980835 1.3959980010986328 32.0
-0.4411914348602295 -1.6565018892288208 1.3645821809768677 36.0
-3.1107497215270996 -2.593001365661621 0.04789208993315697 8.0
-2.9043519496917725 -2.5122668743133545 0.056762419641017914 9.0
-2.670182704925537 -2.4196598529815674 0.08686153590679169 8.0
-2.4797110557556152 -2.3459179401397705 0.10334146022796631 8.0
-2.413750410079956 -2.320013999938965 0.05394282564520836 8.0
-2.290874481201172 -2.2722461223602295 0.041575927287340164 8.0
-2.1440999507904053 -2.2149815559387207 0.047133009880781174 8.0
-2.030803680419922 -2.1709659099578857 0.03737860545516014 8.0
-1.8817801475524902 -2.1140780448913574 0.05401480197906494 10.0
-1.7858772277832031 -2.0768940448760986 0.04073682427406311 10.0
-1.6637173891067505 -2.0291874408721924 0.05010509490966797 20.0
-1.568382978439331 -1.9922372102737427 0.041601330041885376 9.0
-0.46221038699150085 -1.6943974494934082 0.7764041423797607 27.0
-0.4871356189250946 -1.7083755731582642 0.7047700881958008 27.0
-0.5102485418319702 -1.7219980955123901 0.6318492889404297 26.0
-0.525000274181366 -1.7312718629837036 0.5641988515853882 26.0
-0.5338326096534729 -1.739488959312439 0.498406320810318 45.0
-0.5416760444641113 -1.746040940284729 0.431777685880661 45.0
-0.548041582107544 -1.7519547939300537 0.364380419254303 33.0
-0.5529099702835083 -1.757218837738037 0.2962493896484375 25.0
-0.5892733335494995 -1.7779489755630493 0.19350601732730865 30.0
-0.5801486968994141 -1.776614785194397 0.13300582766532898 30.0
-0.5699294209480286 -1.775199055671692 0.07263857871294022 28.0
-0.5403068661689758 -1.764195203781128 0.03419976308941841 19.0
-0.5292235016822815 -1.5865384340286255 0.03766404464840889 17.0
-0.4669017493724823 -1.5627175569534302 0.03705526515841484 17.0
-0.41135743260383606 -1.5412559509277344 0.030539920553565025 20.0
-0.35310402512550354 -1.5187073945999146 0.029177363961935043 10.0
-0.29518747329711914 -1.496656894683838 0.029272589832544327 9.0
-0.23786576092243195 -1.4744923114776611 0.030790837481617928 9.0
-0.18141420185565948 -1.4526644945144653 0.034021537750959396 9.0
-0.13021597266197205 -1.4333595037460327 0.03005894459784031 9.0
-0.08013284206390381 -1.4153655767440796 0.028159402310848236 10.0
-0.031383465975522995 -1.3936767578125 0.027014268562197685 10.0
0.022349432110786438 -1.370444893836975 0.03530850261449814 10.0
0.07152003794908524 -1.3515212535858154 0.03634744510054588 9.0
0.1608530580997467 -1.4552277326583862 0.03025927022099495 9.0
0.2029380053281784 -1.4365977048873901 0.025239063426852226 9.0
0.24760353565216064 -1.4170620441436768 0.02521600015461445 9.0
0.28962528705596924 -1.3985317945480347 0.02182936668395996 9.0
0.3401228189468384 -1.3760719299316406 0.03691376745700836 9.0
0.3830518424510956 -1.3567233085632324 0.040099382400512695 9.0
0.42204147577285767 -1.3396492004394531 0.03511017560958862 9.0
0.4628561735153198 -1.3216689825057983 0.03542163595557213 9.0
0.5048430562019348 -1.302846074104309 0.04130350053310394 9.0
0.5489040017127991 -1.2829557657241821 0.052318163216114044 9.0
0.5840672254562378 -1.267724633216858 0.04115305840969086 9.0
0.6265645623207092 -1.248451828956604 0.0542830191552639 9.0
0.6268324851989746 -1.1172322034835815 0.0691436156630516 10.0
0.66319739818573 -1.0969537496566772 0.06970743089914322 10.0
0.6999996304512024 -1.0829890966415405 0.06633157283067703 9.0
0.7421241402626038 -1.0668319463729858 0.08278889209032059 10.0
0.774982213973999 -1.054429292678833 0.07159489393234253 10.0
0.8155481815338135 -1.038848638534546 0.08463536947965622 10.0
0.8496084809303284 -1.0259402990341187 0.07953592389822006 10.0
0.8904967904090881 -1.0103206634521484 0.0989762544631958 10.0
0.9195987582206726 -0.9996774196624756 0.07072314620018005 10.0
0.9569700360298157 -0.9851871132850647 0.08204148709774017 10.0
0.9902265667915344 -0.9725197553634644 0.07448876649141312 10.0
1.0278676748275757 -0.9580612778663635 0.09209401160478592 10.0
1.0941754579544067 -1.0403296947479248 0.07888700067996979 13.0
1.1267566680908203 -1.026133418083191 0.07306139171123505 12.0
1.161261796951294 -1.0101522207260132 0.08766298741102219 11.0
1.1943193674087524 -0.9952423572540283 0.09300319850444794 10.0
1.2276135683059692 -0.9800892472267151 0.10391882061958313 24.0
1.258879542350769 -0.966816246509552 0.09056605398654938 10.0
1.2911325693130493 -0.9520409107208252 0.09770369529724121 16.0
1.323095679283142 -0.9381600618362427 0.09043705463409424 17.0
1.354960560798645 -0.9244946837425232 0.07875300198793411 26.0
1.3862693309783936 -0.9063961505889893 0.09246200323104858 23.0
1.4189940690994263 -0.8907306790351868 0.09186414629220963 23.0
1.446601152420044 -0.8683035969734192 0.09155430644750595 19.0
-9.718050956726074 -5.168943405151367 0.8611684441566467 4.0
-9.405128479003906 -5.047511100769043 0.7126254439353943 6.0
-9.376314163208008 -5.035526752471924 0.5250934362411499 6.0
-9.457612991333008 -5.0732951164245605 0.320107102394104 29.0
-9.66136646270752 -5.1526641845703125 0.08762851357460022 6.0
-8.915115356445312 -4.860897541046143 0.0481070801615715 6.0
-8.225003242492676 -4.5910820960998535 0.01936326175928116 6.0
-7.282936096191406 -4.802692890167236 0.0409734733402729 6.0
-0.6211681365966797 -1.737713098526001 1.6865335702896118 3.0
-0.6604677438735962 -1.7575337886810303 1.636507272720337 7.0
-5.682682991027832 -4.082319259643555 0.03793363645672798 5.0
-5.171838760375977 -3.855764865875244 0.06804348528385162 7.0
-4.842708587646484 -3.7083823680877686 0.05239684134721756 7.0
-4.5328168869018555 -3.568173885345459 0.041570499539375305 8.0
-4.249584197998047 -3.4424068927764893 0.03243381157517433 9.0
-0.47813040018081665 -1.6842418909072876 1.4638971090316772 39.0
-0.4657894968986511 -1.6801300048828125 1.4300518035888672 39.0
-0.4487610161304474 -1.6738137006759644 1.3983206748962402 39.0
-0.4353068470954895 -1.6695592403411865 1.3650037050247192 33.0
-2.7688164710998535 -2.4916625022888184 0.2091349959373474 9.0
-2.5612740516662598 -2.4087157249450684 0.22584006190299988 12.0
-2.4443743228912354 -2.363401174545288 0.11782356351613998 10.0
-2.4033658504486084 -2.3470778465270996 0.05476515740156174 8.0
-2.2808279991149902 -2.2984561920166016 0.042372021824121475 8.0
-2.134455680847168 -2.2401676177978516 0.04789773002266884 8.0
-2.025451421737671 -2.1969807147979736 0.03556174039840698 8.0
-1.8610228300094604 -2.13262677192688 0.06260469555854797 9.0
-0.6785339713096619 -1.6538606882095337 0.6958653330802917 1.0
-0.45614051818847656 -1.707716941833496 0.7768359780311584 24.0
-0.4918595552444458 -1.7271807193756104 0.6963474750518799 23.0
-0.5219141840934753 -1.7444242238998413 0.6172007322311401 25.0
-0.5399187803268433 -1.7554538249969482 0.5461541414260864 25.0
-0.527484118938446 -1.7533620595932007 0.49885690212249756 50.0
-0.5352907180786133 -1.7599818706512451 0.4322306215763092 50.0
-0.55857914686203 -1.7743349075317383 0.3484865725040436 35.0
-0.5598289370536804 -1.7778910398483276 0.2833836078643799 30.0
-0.5826963186264038 -1.7922682762145996 0.19397176802158356 26.0
-0.5930145978927612 -1.8005748987197876 0.11276399344205856 26.0
-0.5920457243919373 -1.8037590980529785 0.04151283577084541 20.0
-0.5369797945022583 -1.7797788381576538 0.031089678406715393 22.0
-0.5240046977996826 -1.6004745960235596 0.03808385133743286 18.0
-0.46185073256492615 -1.5762194395065308 0.03746184706687927 18.0
-0.4064582884311676 -1.554371953010559 0.03093467280268669 22.0
-0.34836387634277344 -1.531417965888977 0.029559697955846786 10.0
-0.28765541315078735 -1.5077390670776367 0.033491697162389755 9.0
-0.2334367334842682 -1.4863996505737305 0.03114868327975273 9.0
-0.1799665093421936 -1.4653574228286743 0.030416063964366913 9.0
-0.12884262204170227 -1.4456735849380493 0.026392441242933273 9.0
-0.07341571897268295 -1.425038456916809 0.03253260999917984 9.0
-0.024879083037376404 -1.403038501739502 0.03142380714416504 9.0
0.0260467529296875 -1.3805383443832397 0.035610221326351166 10.0
0.07508427649736404 -1.361271858215332 0.03663869947195053 10.0
0.16513799130916595 -1.4643536806106567 0.030558738857507706 9.0
0.20479196310043335 -1.446663737297058 0.021263405680656433 9.0
0.25161927938461304 -1.4255847930908203 0.025496069341897964 9.0
0.28917035460472107 -1.409118413925171 0.01340447273105383 9.0
0.34595608711242676 -1.3827964067459106 0.041560087352991104 9.0
0.38868436217308044 -1.3631762266159058 0.04477407783269882 9.0
0.4255141615867615 -1.346954584121704 0.03535110875964165 9.0
0.4681081175804138 -1.3276234865188599 0.040151212364435196 9.0
0.5098965167999268 -1.3085354566574097 0.04605806618928909 9.0
0.5519804954528809 -1.2893741130828857 0.05253056064248085 9.0
0.5887352824211121 -1.2729216814041138 0.04595675691962242 9.0
0.6293986439704895 -1.2543288469314575 0.054477982223033905 10.0
0.6287529468536377 -1.1231074333190918 0.069312684237957 10.0
0.6665657758712769 -1.1019349098205566 0.07456435263156891 10.0
0.7016791105270386 -1.088355302810669 0.06648387759923935 10.0
0.7451364994049072 -1.0713169574737549 0.0876830592751503 10.0
0.7778332829475403 -1.0587154626846313 0.07650686055421829 10.0
0.8169192671775818 -1.0434060096740723 0.08476315438747406 10.0
0.8521121144294739 -1.0297622680664062 0.08447860926389694 10.0
0.8928172588348389 -1.0138832330703735 0.10393159091472626 10.0
0.9196193814277649 -1.0039539337158203 0.06596516817808151 10.0
0.9569650888442993 -0.9891714453697205 0.07725728303194046 10.0
0.9902065396308899 -0.9762446284294128 0.06968022882938385 10.0
1.0286710262298584 -0.9611378312110901 0.09217681735754013 10.0
1.0955493450164795 -1.0429441928863525 0.07897693663835526 15.0
1.1280299425125122 -1.0285221338272095 0.07314407080411911 10.0
1.1618818044662476 -1.012770414352417 0.08278965204954147 10.0
1.1949090957641602 -0.997596263885498 0.08811191469430923 12.0
1.2281723022460938 -0.9821762442588806 0.09901095181703568 22.0
1.2597380876541138 -0.968281090259552 0.09061895310878754 13.0
1.2916408777236938 -0.9536202549934387 0.09276707470417023 17.0
1.3237526416778564 -0.9391775727272034 0.09047552198171616 19.0
1.3555198907852173 -0.9252925515174866 0.07878441363573074 27.0
1.3866770267486572 -0.9072059392929077 0.08749129623174667 16.0
1.4193676710128784 -0.8912755846977234 0.08688420057296753 18.0
1.4468814134597778 -0.8686038255691528 0.08656550943851471 19.0
-9.839675903320312 -5.307682991027832 0.844724178314209 2.0
-9.407669067382812 -5.136063098907471 0.7103967070579529 7.0
-9.401850700378418 -5.133080005645752 0.5186464786529541 169.0
-9.473605155944824 -5.167752265930176 0.3143453001976013 34.0
