# .PCD v0.7 - Point Cloud Data
VERSION 0.7
FIELDS x y z intensity
SIZE 4 4 4 4
TYPE F F F F
COUNT 1 1 1 1
WIDTH 770
HEIGHT 1
VIEWPOINT 0 0 0 1 0 0 0
POINTS 770
DATA ascii
2.29079532623291 1.6282455921173096 0.04529615864157677 9.0
2.2632687091827393 1.5481332540512085 0.04671862721443176 9.0
2.235961675643921 1.4687249660491943 0.05030303820967674 10.0
2.2136764526367188 1.4030319452285767 0.041526395827531815 10.0
2.188767671585083 1.3314547538757324 0.04178690165281296 9.0
2.163078546524048 1.2579065561294556 0.04823485016822815 9.0
2.2871265411376953 1.132239818572998 0.057192862033843994 9.0
2.262310028076172 1.0701924562454224 0.055678997188806534 9.0
2.242128372192383 1.0177067518234253 0.044670846313238144 10.0
2.217783212661743 0.9564410448074341 0.046176180243492126 10.0
2.194611072540283 0.8988336324691772 0.04542232304811478 10.0
2.1718385219573975 0.8416006565093994 0.046116702258586884 10.0
2.1493027210235596 0.7852552533149719 0.048534080386161804 10.0
2.1263325214385986 0.7288698554039001 0.05173743516206741 10.0
2.1056668758392334 0.6798605918884277 0.04914282262325287 10.0
2.0885651111602783 0.6293314695358276 0.04754308611154556 10.0
2.0686306953430176 0.5742090940475464 0.055281203240156174 10.0
2.0490832328796387 0.5252739191055298 0.05569927394390106 10.0
1.9100550413131714 0.5224096179008484 0.053720053285360336 10.0
1.894595980644226 0.4765297472476959 0.052685342729091644 10.0
1.8787051439285278 0.43073704838752747 0.052395086735486984 10.0
1.8622889518737793 0.3828599750995636 0.05743597075343132 9.0
1.8480579853057861 0.3424626588821411 0.05040867626667023 10.0
1.832093596458435 0.295712947845459 0.057645589113235474 10.0
1.817685842514038 0.25343936681747437 0.056807372719049454 10.0
1.8016189336776733 0.20734810829162598 0.06580054759979248 10.0
1.789027452468872 0.17014479637145996 0.05790780857205391 10.0
1.7738410234451294 0.12649109959602356 0.06402038782835007 10.0
1.7596631050109863 0.0847129076719284 0.06631582230329514 10.0
1.7456644773483276 0.044432029128074646 0.06993258744478226 10.0
1.8430126905441284 -0.03947427123785019 0.07790295779705048 32.0
1.8322441577911377 -0.08155066519975662 0.0829838290810585 32.0
1.817724585533142 -0.11809143424034119 0.07914086431264877 34.0
1.8016870021820068 -0.15699970722198486 0.08558328449726105 31.0
1.7899539470672607 -0.18849903345108032 0.06918354332447052 17.0
1.774564504623413 -0.22643204033374786 0.0720604807138443 17.0
1.759554147720337 -0.26297831535339355 0.0760129764676094 10.0
1.7434626817703247 -0.30139634013175964 0.08518487960100174 10.0
1.7338347434997559 -0.32967665791511536 0.051645681262016296 10.0
1.718234896659851 -0.36726558208465576 0.06236094608902931 10.0
1.7039433717727661 -0.4025724530220032 0.06404733657836914 10.0
1.6884286403656006 -0.4393150508403778 0.07617984712123871 10.0
1.582055687904358 -0.4338759481906891 0.06612038612365723 17.0
1.570283055305481 -0.46846944093704224 0.06487525254487991 13.0
1.5576354265213013 -0.504629373550415 0.07913298904895782 13.0
1.5463714599609375 -0.5379459261894226 0.07422808557748795 14.0
1.534675121307373 -0.5718411803245544 0.07485610246658325 18.0
1.5225886106491089 -0.6065731048583984 0.08602586388587952 12.0
1.5113015174865723 -0.6399219036102295 0.08788051456212997 14.0
1.4997837543487549 -0.673604428768158 0.09027501195669174 11.0
1.4890835285186768 -0.7062186598777771 0.07329504936933517 30.0
1.4803990125656128 -0.7412904500961304 0.08190734684467316 19.0
1.4695357084274292 -0.7761568427085876 0.08605729043483734 19.0
1.4675092697143555 -0.8118289709091187 0.07603578269481659 24.0
5.492866039276123 9.597879409790039 1.9900158643722534 89.0
5.5056352615356445 9.592302322387695 1.8070988655090332 74.0
5.515469551086426 9.590231895446777 1.6276240348815918 67.0
5.522416591644287 9.575018882751465 1.4429181814193726 37.0
4.205371379852295 6.234709739685059 1.5760051012039185 12.0
4.149643421173096 6.07317590713501 1.4713343381881714 9.0
4.141678810119629 6.035579204559326 1.3571711778640747 8.0
4.076986312866211 5.852989196777344 1.2623794078826904 8.0
3.97682785987854 5.593079566955566 1.1875118017196655 8.0
3.8886497020721436 5.354409217834473 1.117279291152954 12.0
3.8282487392425537 5.188884258270264 1.0403118133544922 15.0
3.759891986846924 5.0044050216674805 0.9715646505355835 15.0
3.7441904544830322 6.031762599945068 0.6418099403381348 7.0
4.002617359161377 6.754395484924316 0.05864912271499634 8.0
3.813788652420044 6.207048416137695 0.08686935156583786 8.0
3.7008984088897705 5.8690185546875 0.06446866691112518 8.0
3.5831234455108643 5.513991832733154 0.05939626693725586 8.0
3.472789764404297 5.188697814941406 0.05723479017615318 8.0
3.3437178134918213 4.805920600891113 0.08471624553203583 8.0
3.270343542098999 4.585549354553223 0.06279738247394562 8.0
3.1789064407348633 4.313474178314209 0.07021878659725189 8.0
3.1066298484802246 4.1001200675964355 0.061248231679201126 8.0
3.301821708679199 3.806269884109497 0.06318660825490952 8.0
3.2286417484283447 3.6156136989593506 0.05970565229654312 8.0
3.157949924468994 3.4297516345977783 0.05933336168527603 8.0
3.0913140773773193 3.258955717086792 0.059674955904483795 8.0
3.0175108909606934 3.067617416381836 0.07537844032049179 8.0
2.967280387878418 2.9359288215637207 0.06542734801769257 8.0
2.9102656841278076 2.788581371307373 0.06849402189254761 8.0
2.8602616786956787 2.6587555408477783 0.06671465188264847 8.0
2.807443857192993 2.5260720252990723 0.07072843611240387 9.0
2.7677159309387207 2.4217770099639893 0.06091494485735893 9.0
2.716721296310425 2.291414499282837 0.0736839696764946 9.0
2.673753023147583 2.180415153503418 0.07474666833877563 9.0
2.4489550590515137 2.1545166969299316 0.062134772539138794 9.0
2.416013240814209 2.055175542831421 0.061419229954481125 9.0
2.3854541778564453 1.9643492698669434 0.0575234517455101 9.0
2.3543450832366943 1.87065851688385 0.05971502885222435 9.0
2.3241240978240967 1.7853864431381226 0.05773264542222023 9.0
2.3006839752197266 1.7148710489273071 0.045438580214977264 9.0
2.272242546081543 1.6303198337554932 0.047936633229255676 9.0
2.246549606323242 1.5536062717437744 0.04613843187689781 9.0
2.2210402488708496 1.4774960279464722 0.04638001322746277 10.0
2.197970390319824 1.4081615209579468 0.040981583297252655 10.0
2.1723532676696777 1.3330340385437012 0.04474186897277832 9.0
2.149578094482422 1.2660123109817505 0.04418588802218437 9.0
2.2718918323516846 1.1347123384475708 0.0602804459631443 9.0
2.247528076171875 1.0725492238998413 0.05883891135454178 9.0
2.2277307510375977 1.0199790000915527 0.047899357974529266 10.0
2.205193519592285 0.9616108536720276 0.04571881517767906 10.0
2.1824238300323486 0.903843104839325 0.044979482889175415 10.0
2.160051107406616 0.8464525938034058 0.04568825662136078 10.0
2.1366117000579834 0.7871224284172058 0.05203232541680336 10.0
2.1153335571289062 0.7334081530570984 0.051337435841560364 10.0
2.0950100421905518 0.6842555403709412 0.04875531047582626 10.0
2.078261137008667 0.6336081624031067 0.04716786742210388 10.0
2.059929847717285 0.5809298753738403 0.05081356316804886 10.0
2.0407016277313232 0.5317955017089844 0.051197800785303116 10.0
1.9005022048950195 0.5254445672035217 0.053390342742204666 10.0
1.8853634595870972 0.47945770621299744 0.05236678943037987 10.0
1.8697925806045532 0.4335552155971527 0.05208773538470268 10.0
1.8537113666534424 0.38556572794914246 0.057140301913022995 10.0
1.8389068841934204 0.34279483556747437 0.05449323356151581 10.0
1.8232914209365845 0.296003520488739 0.06177996098995209 10.0
1.8100123405456543 0.25583702325820923 0.05654330924153328 9.0
1.7942686080932617 0.20963652431964874 0.06554777175188065 9.0
1.7819359302520752 0.17234474420547485 0.05766408517956734 10.0
1.7670552730560303 0.12858735024929047 0.06378734111785889 10.0
1.7531695365905762 0.08671160787343979 0.06609296053647995 10.0
1.7394527196884155 0.04633484408259392 0.06971956789493561 10.0
1.8373850584030151 -0.03688863292336464 0.0776931568980217 36.0
1.8269110918045044 -0.079038105905056 0.0827837884426117 36.0
1.8135184049606323 -0.11420691758394241 0.07425228506326675 29.0
1.7968814373016357 -0.15469805896282196 0.08540229499340057 30.0
1.7853662967681885 -0.18628168106079102 0.06901036947965622 20.0
1.7702420949935913 -0.22432057559490204 0.07189688831567764 20.0
1.7554877996444702 -0.2609699070453644 0.07585863769054413 10.0
1.7396659851074219 -0.29949748516082764 0.08504031598567963 10.0
1.7302310466766357 -0.32785090804100037 0.051508013159036636 10.0
1.714895248413086 -0.3655456304550171 0.06223281845450401 10.0
1.7008506059646606 -0.4009510576725006 0.06392811983823776 10.0
1.6855943202972412 -0.4377985894680023 0.07606999576091766 10.0
1.5788064002990723 -0.43391725420951843 0.07094281166791916 18.0
1.5676535367965698 -0.4677788317203522 0.06478732824325562 12.0
1.555260419845581 -0.5040233135223389 0.07905391603708267 11.0
1.5442285537719727 -0.5374186038970947 0.07415711879730225 13.0
1.5319385528564453 -0.5729148387908936 0.0896930918097496 23.0
1.5211780071258545 -0.6057779788970947 0.08099643886089325 10.0
1.5098727941513062 -0.6396340727806091 0.0878344476222992 12.0
1.498791217803955 -0.6731202006340027 0.08524870127439499 12.0
1.4882909059524536 -0.7058890461921692 0.068272165954113 29.0
1.4795212745666504 -0.7413344383239746 0.08688189089298248 22.0
1.4689263105392456 -0.7761939764022827 0.0910419300198555 23.0
1.4672794342041016 -0.8118448257446289 0.07602958381175995 17.0
5.4076032638549805 9.593416213989258 1.9881840944290161 112.0
5.422151565551758 9.592584609985352 1.805646538734436 105.0
5.4337615966796875 9.595232963562012 1.6263782978057861 101.0
5.437163352966309 9.570769309997559 1.4427986145019531 80.0
4.156113624572754 6.2539215087890625 1.574235439300537 10.0
4.0978803634643555 6.082716941833496 1.4706345796585083 9.0
4.030412197113037 5.892515182495117 1.3762412071228027 9.0
3.975998878479004 5.7329182624816895 1.2809351682662964 9.0
3.935619831085205 5.6198344230651855 1.1843922138214111 12.0
3.867204189300537 5.426370620727539 1.1057308912277222 15.0
3.802508592605591 5.246523857116699 1.030592679977417 14.0
3.7426488399505615 5.079634666442871 0.9572089910507202 14.0
3.7519006729125977 6.214278697967529 0.6012648344039917 10.0
4.060588836669922 7.113527774810791 0.10501750558614731 8.0
3.951066732406616 6.77645206451416 0.0554877407848835 8.0
3.7675843238830566 6.232338905334473 0.08236819505691528 8.0
3.6494367122650146 5.870831489562988 0.06726175546646118 8.0
3.5371878147125244 5.524074077606201 0.05940587818622589 9.0
3.4276251792907715 5.193562984466553 0.05902964621782303 8.0
3.3012447357177734 4.809954643249512 0.08676169812679291 7.0
3.2309153079986572 4.593553066253662 0.0632653683423996 7.0
3.141387462615967 4.3208770751953125 0.0708293616771698 8.0
3.072086811065674 4.1114182472229 0.06004968285560608 8.0
3.267612934112549 3.814687967300415 0.06402210891246796 7.0
3.1974761486053467 3.627774238586426 0.058585889637470245 8.0
3.128082513809204 3.441423177719116 0.05825989320874214 8.0
3.0626397132873535 3.2701668739318848 0.058644264936447144 8.0
2.990175724029541 3.0783214569091797 0.0743955597281456 8.0
2.940863847732544 2.9462835788726807 0.06447729468345642 8.0
2.8848788738250732 2.7985424995422363 0.06758080422878265 8.0
2.8341360092163086 2.66437029838562 0.06834185123443604 8.0
2.7822587490081787 2.5313618183135986 0.07245898246765137 9.0
2.7416486740112305 2.42290997505188 0.06538617610931396 9.0
2.696418046951294 2.30391788482666 0.07018221914768219 9.0
2.652616500854492 2.188742160797119 0.07398568838834763 9.0
2.426668167114258 2.157392978668213 0.06426621228456497 9.0
2.3970766067504883 2.065539836883545 0.05779562518000603 9.0
2.3632137775421143 1.963087558746338 0.06282084435224533 9.0
2.334080696105957 1.8730188608169556 0.06211085245013237 9.0
2.304471492767334 1.7875851392745972 0.060213353484869 9.0
2.2815372943878174 1.7169543504714966 0.047999560832977295 9.0
2.252453565597534 1.6286605596542358 0.053821709007024765 9.0
2.229792833328247 1.5589622259140015 0.04555945098400116 9.0
2.204814910888672 1.4826759099960327 0.045819517225027084 10.0
2.1834299564361572 1.416621208190918 0.03701388090848923 10.0
2.157137155532837 1.3378775119781494 0.04421650618314743 9.0
2.1348299980163574 1.2706983089447021 0.04367685690522194 9.0
2.2566630840301514 1.137069821357727 0.06337044388055801 9.0
2.232752561569214 1.0747944116592407 0.06200094893574715 9.0
2.216055393218994 1.0282917022705078 0.043726030737161636 10.0
2.1912295818328857 0.9636763334274292 0.049018505960702896 10.0
2.1702017784118652 0.9087673425674438 0.044537320733070374 10.0
2.1482300758361816 0.8512222766876221 0.0452604666352272 10.0
2.1239285469055176 0.7888932228088379 0.05553290620446205 10.0
2.1030473709106445 0.7350934743881226 0.05490221828222275 10.0
2.083089828491211 0.685859739780426 0.05238070338964462 10.0
2.066711187362671 0.6351602673530579 0.0508531890809536 10.0
2.0487661361694336 0.5824204683303833 0.054558493196964264 10.0
2.0299034118652344 0.5332174301147461 0.05500118434429169 10.0
1.8909283876419067 0.5284126400947571 0.053061343729496 10.0
1.8761107921600342 0.4823210537433624 0.052048929035663605 10.0
1.8608604669570923 0.4363110065460205 0.051781050860881805 10.0
1.8451151847839355 0.38821154832839966 0.056845273822546005 10.0
1.832285761833191 0.3498956561088562 0.04546712711453438 10.0
1.8169564008712769 0.3028632402420044 0.052688416093587875 10.0
1.8015261888504028 0.25603801012039185 0.06072678789496422 10.0
1.7869024276733398 0.21187351644039154 0.06529554724693298 9.0
1.7755813598632812 0.1764998584985733 0.05290263146162033 10.0
1.760254979133606 0.13063614070415497 0.06355481594800949 10.0
1.7473690509796143 0.09052644670009613 0.061284177005290985 10.0
1.7325435876846313 0.04640305042266846 0.07412491738796234 10.0
1.8326416015625 -0.0327133871614933 0.07284332811832428 31.0
1.8224483728408813 -0.07501143962144852 0.0779145136475563 31.0
1.807551383972168 -0.11330427974462509 0.07875937968492508 38.0
1.7920598983764648 -0.15243001282215118 0.08522151410579681 32.0
1.7815712690353394 -0.18276377022266388 0.0640866756439209 19.0
1.766685962677002 -0.22098200023174286 0.06695745140314102 19.0
1.7521610260009766 -0.2578059434890747 0.07090573012828827 10.0
1.7358561754226685 -0.29762521386146545 0.08489590138196945 10.0
1.7266145944595337 -0.32605040073394775 0.05137047544121742 10.0
1.7115436792373657 -0.36384907364845276 0.062104810029268265 10.0
1.697746753692627 -0.3993512690067291 0.06380901485681534 11.0
1.6827495098114014 -0.43630197644233704 0.07596023380756378 12.0
1.576308250427246 -0.4323517084121704 0.0659279078245163 16.0
1.5653663873672485 -0.4663686156272888 0.05976663902401924 16.0
1.5532037019729614 -0.5027724504470825 0.07402950525283813 14.0
1.5420819520950317 -0.5369062423706055 0.07408634573221207 14.0
1.5303146839141846 -0.5719766020774841 0.08466413617134094 22.0
1.5195099115371704 -0.6054234504699707 0.08094228804111481 10.0
1.5086652040481567 -0.6390025019645691 0.08280608803033829 10.0
1.4973959922790527 -0.6731953024864197 0.09019942581653595 18.0
1.4874932765960693 -0.7055657505989075 0.06324902921915054 28.0
1.4788007736206055 -0.7412660717964172 0.08686015754938126 22.0
1.4685808420181274 -0.7761614322662354 0.08603034913539886 25.0
1.4670497179031372 -0.8118622899055481 0.07602342218160629 24.0
5.326127052307129 9.597626686096191 1.986148715019226 91.0
5.338863849639893 9.59221076965332 1.8042124509811401 73.0
5.350413799285889 9.594935417175293 1.625422716140747 70.0
5.361034393310547 9.589143753051758 1.4409162998199463 39.0
4.110272407531738 6.282096862792969 1.571595549583435 9.0
4.049671173095703 6.101161479949951 1.4689096212387085 10.0
3.9924099445343018 5.933650493621826 1.3715870380401611 12.0
3.9373254776000977 5.768977642059326 1.276593565940857 12.0
3.892383337020874 5.641713619232178 1.182025671005249 10.0
3.8484256267547607 5.5075225830078125 1.0924891233444214 10.0
3.784963846206665 5.3270087242126465 1.0162899494171143 13.0
3.7368955612182617 5.186871528625488 0.9358775615692139 13.0
3.7586755752563477 6.401854515075684 0.5595614910125732 5.0
4.033627986907959 7.218890190124512 0.07955542206764221 8.0
3.9023351669311523 6.807326316833496 0.04969147592782974 8.0
3.710679054260254 6.225388050079346 0.0876406580209732 8.0
3.6025264263153076 5.885875225067139 0.06563995033502579 8.0
3.4882471561431885 5.524796485900879 0.06252685934305191 9.0
3.383967399597168 5.202582836151123 0.05920154228806496 9.0
3.2617475986480713 4.822597980499268 0.08539661765098572 7.0
3.1929268836975098 4.605706691741943 0.06195256486535072 7.0
3.103848695755005 4.32800817489624 0.07144469767808914 8.0
3.036017894744873 4.118098258972168 0.06079152971506119 8.0
3.2350575923919678 3.8271167278289795 0.06285775452852249 7.0
3.1645519733428955 3.635488510131836 0.05954592302441597 8.0
3.094802141189575 3.444497585296631 0.061492785811424255 8.0
3.0305752754211426 3.2728567123413086 0.062064122408628464 8.0
2.962766408920288 3.088834285736084 0.07341431826353073 8.0
2.9143755435943604 2.956453561782837 0.06352881342172623 8.0
2.8577957153320312 2.804276704788208 0.06910841912031174 8.0
2.8096179962158203 2.6738030910491943 0.06746354699134827 8.0
2.7586703300476074 2.5404369831085205 0.07161398231983185 9.0
2.7188169956207275 2.4317033290863037 0.06456810235977173 9.0
2.6744184494018555 2.31239914894104 0.06939379125833511 9.0
2.6314220428466797 2.1969215869903564 0.0732259452342987 9.0
2.4043893814086914 2.1601054668426514 0.06640107184648514 9.0
2.37545108795166 2.068092107772827 0.060018669813871384 9.0
2.3448803424835205 1.9730490446090698 0.05915610119700432 9.0
2.3150954246520996 1.8789812326431274 0.06145693361759186 9.0
2.2860827445983887 1.7933424711227417 0.05958033353090286 9.0
2.2624025344848633 1.7188961505889893 0.05056363716721535 9.0
2.2363967895507812 1.6376620531082153 0.049985140562057495 9.0
2.210583209991455 1.557093858718872 0.05158882588148117 9.0
2.188553810119629 1.487742304801941 0.0452602244913578 10.0
2.1676292419433594 1.421538233757019 0.03647053241729736 10.0
2.1418871879577637 1.3426146507263184 0.043692272156476974 9.0
2.118905782699585 1.2719420194625854 0.04671022295951843 10.0
2.242814540863037 1.1425100564956665 0.06287216395139694 10.0
2.219338893890381 1.0800690650939941 0.06151821091771126 10.0
2.2016284465789795 1.030363917350769 0.04695760831236839 10.0
2.1785905361175537 0.9686613082885742 0.04856334999203682 10.0
2.1579456329345703 0.9136060476303101 0.04409585893154144 10.0
2.136376142501831 0.8559093475341797 0.044833358377218246 10.0
2.112511396408081 0.7934141755104065 0.05512140691280365 10.0
2.0907700061798096 0.7366857528686523 0.05846907198429108 10.0
2.07360577583313 0.6928216814994812 0.04798207804560661 10.0
2.0575647354125977 0.6419448256492615 0.046419158577919006 10.0
2.0387911796569824 0.5864219069480896 0.05419796705245972 10.0
2.0202724933624268 0.5370885133743286 0.05465293675661087 10.0
1.8813340663909912 0.5313137769699097 0.05273307114839554 10.0
1.8668382167816162 0.48511987924575806 0.051731761544942856 10.0
1.8519091606140137 0.43900439143180847 0.05147503688931465 10.0
1.836500644683838 0.3907972276210785 0.056550897657871246 10.0
1.823115587234497 0.35010674595832825 0.0495532751083374 10.0
1.8081361055374146 0.3030374348163605 0.05682430788874626 10.0
1.7946158647537231 0.2604711949825287 0.05601693317294121 9.0
1.778761863708496 0.21198078989982605 0.06952761858701706 9.0
1.7684451341629028 0.17860478162765503 0.052659496665000916 10.0
1.7541559934616089 0.1345752775669098 0.058769505470991135 10.0
1.7408345937728882 0.09243825078010559 0.06106184795498848 10.0
1.7269902229309082 0.05001005902886391 0.06929498165845871 9.0
1.826966404914856 -0.030201297253370285 0.07263360917568207 33.0
1.8170692920684814 -0.07256844639778137 0.07771453261375427 33.0
1.80243980884552 -0.1109640970826149 0.07856898009777069 32.0
1.7872226238250732 -0.15019568800926208 0.08504094183444977 28.0
1.7753467559814453 -0.18328088521957397 0.07341615855693817 19.0
1.7615538835525513 -0.22018849849700928 0.07157023996114731 19.0
1.747313380241394 -0.25703859329223633 0.07555045932531357 10.0
1.7327502965927124 -0.29466745257377625 0.0799301341176033 10.0
1.7229857444763184 -0.3242751955986023 0.05123307928442955 10.0
1.7088426351547241 -0.3612147867679596 0.057114824652671814 10.0
1.6939970254898071 -0.3986586928367615 0.06856977939605713 13.0
1.6805013418197632 -0.43401575088500977 0.0709540843963623 10.0
1.5737923383712769 -0.43080297112464905 0.0609125941991806 17.0
1.562380313873291 -0.46645277738571167 0.06461214274168015 14.0
1.5504980087280273 -0.5028610229492188 0.07889638841152191 15.0
1.5399317741394043 -0.5364089012145996 0.07401575893163681 10.0
1.5289477109909058 -0.5705411434173584 0.07466857135295868 20.0
1.5178393125534058 -0.6050805449485779 0.0808882936835289 12.0
1.5070093870162964 -0.6390883922576904 0.08774272352457047 12.0
1.496395468711853 -0.6727269291877747 0.08517319709062576 15.0
1.4863489866256714 -0.7056458592414856 0.06821243464946747 33.0
1.478232979774475 -0.7410851120948792 0.08184201270341873 22.0
1.4681034088134766 -0.7761687636375427 0.08601697534322739 21.0
1.4668201208114624 -0.8118813633918762 0.07601729035377502 17.0
5.244785785675049 9.601207733154297 1.9841294288635254 112.0
5.2557759284973145 9.591180801391602 1.8027968406677246 99.0
5.267266273498535 9.593981742858887 1.6244856119155884 103.0
5.2778825759887695 9.58827018737793 1.4404743909835815 80.0
4.0641703605651855 6.309974670410156 1.5689541101455688 9.0
3.999589681625366 6.114612102508545 1.4677051305770874 9.0
3.9522128105163574 5.9699320793151855 1.3675204515457153 8.0
3.9174890518188477 5.855806827545166 1.2648013830184937 8.0
3.875145673751831 5.732661724090576 1.1683175563812256 7.0
3.8408501148223877 5.620979309082031 1.0733709335327148 10.0
3.776876449584961 5.435108184814453 0.9964724779129028 10.0
3.7349815368652344 5.308041095733643 0.911521852016449 10.0
3.7584869861602783 6.575888633728027 0.5210252404212952 5.0
3.9787790775299072 7.24119758605957 0.07637520134449005 8.0
3.847412347793579 6.819514274597168 0.04916983097791672 9.0
3.656909465789795 6.227136135101318 0.09013325721025467 8.0
3.552598476409912 5.891490936279297 0.0669734850525856 8.0
3.4423024654388428 5.5341973304748535 0.06254951655864716 9.0
3.3388350009918213 5.206788539886475 0.06100993975996971 8.0
3.219285726547241 4.826019287109375 0.08745457977056503 7.0
3.1519901752471924 4.608704566955566 0.06421633064746857 7.0
3.0648674964904785 4.330451488494873 0.07392803579568863 8.0
2.998518705368042 4.1201324462890625 0.06347725540399551 8.0
3.2007646560668945 3.835045099258423 0.06370042264461517 7.0
3.131605386734009 3.6429619789123535 0.06051001697778702 8.0
3.063197612762451 3.451523542404175 0.06257827579975128 8.0
3.000178813934326 3.279473304748535 0.06326410174369812 8.0
2.9336655139923096 3.095020294189453 0.07473309338092804 8.0
2.8862078189849854 2.9623401165008545 0.06495118886232376 8.0
2.8307013511657715 2.8098111152648926 0.07063963264226913 8.0
2.7834458351135254 2.6790435314178467 0.06909649819135666 8.0
2.733442544937134 2.54536509513855 0.07335014641284943 9.0
2.694359064102173 2.4363951683044434 0.06639961153268814 9.0
2.650805711746216 2.316826343536377 0.07132168114185333 9.0
2.608628988265991 2.2010955810546875 0.07525092363357544 9.0
2.382120132446289 2.162654399871826 0.06853940337896347 9.0
2.3538360595703125 2.0704853534698486 0.06224535033106804 9.0
2.323942184448242 1.9752771854400635 0.061471011489629745 9.0
2.2960686683654785 1.884810447692871 0.060804449021816254 9.0
2.2664284706115723 1.7952592372894287 0.062066733837127686 9.0
2.244492530822754 1.7243596315383911 0.04994991049170494 9.0
2.2190539836883545 1.6429458856582642 0.04939097911119461 9.0
2.19498610496521 1.5657612085342407 0.047709766775369644 9.0
2.1710903644561768 1.48918616771698 0.048066940158605576 10.0
2.1506423950195312 1.4228899478912354 0.03935409337282181 10.0
2.1254687309265137 1.3438442945480347 0.04665442556142807 9.0
2.1041173934936523 1.276414394378662 0.04620422050356865 9.0
2.228928327560425 1.1478532552719116 0.06237470358610153 9.0
2.2072205543518066 1.088399052619934 0.0573882982134819 9.0
2.188523530960083 1.0354195833206177 0.04648788645863533 10.0
2.165916919708252 0.9735579490661621 0.048108939081430435 10.0
2.145656108856201 0.9183590412139893 0.04365512728691101 10.0
2.1244897842407227 0.8605133891105652 0.0444069467484951 10.0
2.1010630130767822 0.7978553175926208 0.05471057817339897 10.0
2.0797183513641357 0.7409772276878357 0.058072399348020554 10.0
2.062859058380127 0.6969923973083496 0.04759639501571655 10.0
2.047173023223877 0.6460044384002686 0.0460456982254982 10.0
2.0299501419067383 0.5929564237594604 0.04972998797893524 10.0
2.0106146335601807 0.5408922433853149 0.05430524796247482 10.0
1.870834231376648 0.5315932035446167 0.056611333042383194 10.0
1.8566797971725464 0.48536431789398193 0.05566403269767761 10.0
1.8437857627868652 0.444058358669281 0.04687879607081413 10.0
1.8278683423995972 0.3933226466178894 0.05625719577074051 10.0
1.8139612674713135 0.350249707698822 0.0536414310336113 10.0
1.7993313074111938 0.3031461238861084 0.06096215918660164 10.0
1.7861288785934448 0.26055532693862915 0.060202669352293015 10.0
1.7713804244995117 0.21411029994487762 0.06927705556154251 9.0
1.7598485946655273 0.1766330897808075 0.06145544722676277 10.0
1.7459111213684082 0.13264870643615723 0.06764515489339828 10.0
1.7342867851257324 0.0943044126033783 0.06084003672003746 10.0
1.7207398414611816 0.051782216876745224 0.06908342242240906 10.0
1.820395827293396 -0.029368499293923378 0.07706534117460251 31.0
1.8108084201812744 -0.07172493636608124 0.08218511939048767 31.0
1.7981513738632202 -0.10717141628265381 0.0736798644065857 35.0
1.7823699712753296 -0.1479952037334442 0.08486059308052063 30.0
1.772299885749817 -0.17848077416419983 0.0637405663728714 21.0
1.7579500675201416 -0.21690185368061066 0.06663046777248383 21.0
1.7432057857513428 -0.2551158666610718 0.07539662718772888 13.0
1.728906273841858 -0.2928445339202881 0.07978571206331253 10.0
1.7193446159362793 -0.32252535223960876 0.05109582841396332 11.0
1.7054603099822998 -0.359561562538147 0.056986793875694275 11.0
1.6915056705474854 -0.3962169885635376 0.06357112526893616 10.0
1.6770288944244385 -0.4333685040473938 0.0757410004734993 10.0
1.570540189743042 -0.4309079051017761 0.06573641300201416 21.0
1.5597368478775024 -0.4658174216747284 0.06452489644289017 14.0
1.5481107234954834 -0.5023048520088196 0.0788179486989975 14.0
1.5377782583236694 -0.5359265804290771 0.07394537329673767 14.0
1.5267685651779175 -0.5706440210342407 0.07957330346107483 19.0
1.5159260034561157 -0.6051812767982483 0.08581005781888962 13.0
1.505358099937439 -0.6391854286193848 0.0926797091960907 10.0
1.495388388633728 -0.6722662448883057 0.0801471695303917 14.0
1.4853767156600952 -0.7055343985557556 0.06818273663520813 31.0
1.477358341217041 -0.7411444783210754 0.0868169441819191 18.0
1.4676260948181152 -0.7761793732643127 0.08600366860628128 21.0
1.4665906429290771 -0.8119021058082581 0.07601119577884674 20.0
5.16188907623291 9.599459648132324 1.982240915298462 83.0
5.174596786499023 9.594198226928711 1.8012034893035889 71.0
5.184323787689209 9.592377662658691 1.6235668659210205 71.0
5.1932268142700195 9.582056999206543 1.4404100179672241 43.0
4.057134628295898 6.4451494216918945 1.5562158823013306 9.0
4.012795925140381 6.300454616546631 1.4473137855529785 6.0
3.992152214050293 6.224961280822754 1.3353639841079712 7.0
3.9531400203704834 6.096045017242432 1.2306073904037476 7.0
3.8396220207214355 5.777316570281982 1.1621482372283936 13.0
3.8318021297454834 5.734627723693848 1.054207444190979 14.0
3.784517526626587 5.589456081390381 0.9674583673477173 10.0
3.752021074295044 5.484558582305908 0.8751770257949829 10.0
3.922300338745117 7.258506774902344 0.07443825900554657 9.0
3.788126230239868 6.817498207092285 0.05261579528450966 8.0
3.6046557426452637 6.233062744140625 0.09123720228672028 9.0
3.5012712478637695 5.8921799659729 0.06979231536388397 9.0
3.3991661071777344 5.552337646484375 0.059467121958732605 9.0
3.293736696243286 5.210659980773926 0.06282584369182587 7.0
3.1754562854766846 4.824644088745117 0.09123069792985916 7.0
3.10969614982605 4.606944561004639 0.0682750716805458 7.0
3.0287201404571533 4.34145450592041 0.07268981635570526 8.0
2.963839054107666 4.130675792694092 0.06228956952691078 8.0
3.164825916290283 3.838439702987671 0.06655383110046387 7.0
3.0970234870910645 3.6459436416625977 0.06355852633714676 8.0
3.031574249267578 3.4583182334899902 0.06366775929927826 8.0
2.9713644981384277 3.290048837661743 0.062241844832897186 8.0
2.9045515060424805 3.1009929180145264 0.07605589926242828 8.0
2.8580288887023926 2.968019485473633 0.06637752801179886 8.0
2.806739568710327 2.8232882022857666 0.06729177385568619 8.0
2.75726580619812 2.6840901374816895 0.07073348760604858 8.0
2.708209276199341 2.5501065254211426 0.07508978992700577 9.0
2.6698968410491943 2.4409055709838867 0.06823454797267914 9.0
2.6271913051605225 2.3210787773132324 0.07325291633605957 8.0
2.5873496532440186 2.208967924118042 0.07449477165937424 9.0
2.3611137866973877 2.1689460277557373 0.06782183796167374 9.0
2.333472490310669 2.076580286026001 0.061549827456474304 9.0
2.304243326187134 1.981165885925293 0.06079833582043648 9.0
2.275787115097046 1.8867393732070923 0.0632084384560585 9.0
2.2479870319366455 1.8007513284683228 0.06143740564584732 9.0
2.2265448570251465 1.7296980619430542 0.04933755472302437 9.0
2.200503349304199 1.64448881149292 0.05204188451170921 9.0
2.1781458854675293 1.5707577466964722 0.04713544249534607 9.0
2.154784917831421 1.494017481803894 0.04751098155975342 12.0
2.133671283721924 1.4241162538528442 0.04224054887890816 12.0
2.1124017238616943 1.3551764488220215 0.039161715656518936 9.0
2.0882019996643066 1.2774299383163452 0.0492422915995121 9.0
2.2136778831481934 1.149884819984436 0.06547044217586517 10.0
2.1924026012420654 1.0903364419937134 0.060555145144462585 10.0
2.1753835678100586 1.0403834581375122 0.04601895809173584 10.0
2.1519358158111572 0.9753243923187256 0.05141398683190346 10.0
2.1320791244506836 0.9200438261032104 0.047027599066495895 10.0
2.1113359928131104 0.862112283706665 0.04784603789448738 10.0
2.0895838737487793 0.8022163510322571 0.05430044233798981 10.0
2.068636894226074 0.7451914548873901 0.05767638981342316 10.0
2.0509092807769775 0.698348879814148 0.05122579261660576 10.0
2.0355947017669678 0.6473168134689331 0.049734894186258316 10.0
2.0199015140533447 0.5968253016471863 0.04936996102333069 10.0
2.0009305477142334 0.544628381729126 0.05395813286304474 10.0
1.8620857000350952 0.5369148850440979 0.052078764885663986 10.0
1.8482356071472168 0.4905226528644562 0.05109960958361626 10.0
1.8347803354263306 0.4466314911842346 0.04657359793782234 10.0
1.8200278282165527 0.39814871549606323 0.051631662994623184 10.0
1.8056118488311768 0.3526182472705841 0.05335880443453789 10.0
1.792081356048584 0.3076409101486206 0.05627989396452904 10.0
1.7776577472686768 0.26057687401771545 0.06438983976840973 10.0
1.763983964920044 0.21618826687335968 0.06902708113193512 10.0
1.754129409790039 0.18266478180885315 0.05217492952942848 10.0
1.7397706508636475 0.13649672269821167 0.06286045163869858 10.0
1.7277261018753052 0.0961247906088829 0.060618750751018524 10.0
1.7138324975967407 0.05170847848057747 0.07349158823490143 9.0
1.8155640363693237 -0.02529638074338436 0.07221503555774689 26.0
1.8062604665756226 -0.06779545545578003 0.0773153305053711 26.0
1.7921684980392456 -0.10639122873544693 0.07818890362977982 36.0
1.7775019407272339 -0.1458287090063095 0.08468047529459 32.0
1.7676419019699097 -0.17638802528381348 0.06356783956289291 23.0
1.7535609006881714 -0.2149076610803604 0.0664672702550888 23.0
1.7390848398208618 -0.2532218396663666 0.07524298131465912 12.0
1.7243492603302002 -0.29216858744621277 0.08446359634399414 10.0
1.7156912088394165 -0.3208010196685791 0.05095873400568962 10.0
1.7014191150665283 -0.35890039801597595 0.0617215521633625 10.0
1.6883689165115356 -0.3946826159954071 0.06345236301422119 10.0
1.6735589504241943 -0.4327476918697357 0.08052850514650345 16.0
1.5676486492156982 -0.4302162528038025 0.06564104557037354 21.0
1.5570889711380005 -0.4652005136013031 0.0644378811120987 11.0
1.5457197427749634 -0.5017653703689575 0.0787397176027298 11.0
1.5356214046478271 -0.5354593396186829 0.07387518137693405 10.0
1.5248548984527588 -0.5702515840530396 0.07951146364212036 23.0
1.514491081237793 -0.6044298410415649 0.08078079670667648 13.0
1.504138708114624 -0.6385827660560608 0.0876515805721283 13.0
1.4941846132278442 -0.6720901727676392 0.08010965585708618 13.0
1.4844037294387817 -0.7054297924041748 0.06815314292907715 30.0
1.476636528968811 -0.741091251373291 0.08679546415805817 21.0
1.4670207500457764 -0.7762295007705688 0.09098866581916809 24.0
1.4663612842559814 -0.811924397945404 0.07600513845682144 19.0
5.079203128814697 9.597061157226562 1.980371117591858 111.0
5.09356164932251 9.596590042114258 1.799626350402832 94.0
5.103262424468994 9.594825744628906 1.622389316558838 91.0
5.112196922302246 9.58456802368164 1.4396462440490723 75.0
4.053366184234619 6.594631671905518 1.5421028137207031 8.0
4.018486976623535 6.47275972366333 1.4284021854400635 5.0
3.993351459503174 6.382765293121338 1.3156652450561523 7.0
3.877896547317505 6.038882255554199 1.2397642135620117 7.0
3.8019115924835205 5.817143440246582 1.156726598739624 23.0
3.8246407508850098 5.857718467712402 1.0333235263824463 25.0
3.7884273529052734 5.739579677581787 0.9392949342727661 16.0
3.7717339992523193 5.675397872924805 0.8357672095298767 16.0
3.8912947177886963 7.387353897094727 0.3363766372203827 7.0
3.8628835678100586 7.266153335571289 0.07499020546674728 9.0
3.734605550765991 6.83348274230957 0.050788458436727524 8.0
3.5538244247436523 6.243196964263916 0.09094973653554916 9.0
3.454216480255127 5.906189918518066 0.06818659603595734 9.0
3.3489294052124023 5.547463893890381 0.06416761875152588 8.0
3.251441240310669 5.223237037658691 0.061382830142974854 7.0
3.1331088542938232 4.827426910400391 0.09330437332391739 7.0
3.0702476501464844 4.613788604736328 0.06876534968614578 7.0
2.9897713661193848 4.343336582183838 0.07518479973077774 8.0
2.927731513977051 4.136572360992432 0.06304561346769333 8.0
3.13051700592041 3.845857620239258 0.06740601360797882 7.0
3.0640652179718018 3.652924060821533 0.06453215330839157 8.0
2.999933958053589 3.46488094329834 0.06476128846406937 8.0
2.940908670425415 3.2962300777435303 0.06344911456108093 8.0
2.873866319656372 3.102595806121826 0.07968274503946304 8.0
2.8298399448394775 2.973491668701172 0.0678073838353157 8.0
2.778029680252075 2.8243632316589355 0.0712706446647644 8.0
2.7326126098632812 2.6929869651794434 0.06986182183027267 8.0
2.6829721927642822 2.5546622276306152 0.07683319598436356 8.0
2.645432233810425 2.4452366828918457 0.07007267326116562 8.0
2.6050736904144287 2.3290772438049316 0.07247058302164078 9.0
2.5660157203674316 2.216691493988037 0.07373999059200287 8.0
2.338839292526245 2.1711764335632324 0.06996623426675797 9.0
2.3130664825439453 2.082533359527588 0.06085587665438652 9.0
2.284503936767578 1.9869170188903809 0.060127198696136475 9.0
2.2578954696655273 1.896069884300232 0.05950387567281723 9.0
2.228334903717041 1.8023874759674072 0.06392911076545715 9.0
2.2074007987976074 1.731232762336731 0.05190931633114815 9.0
2.1831142902374268 1.6495224237442017 0.051451295614242554 9.0
2.160139322280884 1.5720601081848145 0.04986847564578056 9.0
2.13844633102417 1.4987351894378662 0.04695630073547363 14.0
2.1178200244903564 1.4286870956420898 0.04170253500342369 14.0
2.097031593322754 1.3596000671386719 0.03864020109176636 9.0
2.073376417160034 1.2816884517669678 0.04873940721154213 9.0
2.1997413635253906 1.1550252437591553 0.06497552245855331 9.0
2.1775946617126465 1.0921626091003418 0.06372444331645966 9.0
2.1622092723846436 1.0452553033828735 0.04555085673928261 10.0
2.139216899871826 0.9800354838371277 0.05096191167831421 9.0
2.1185126304626465 0.9216267466545105 0.050401877611875534 10.0
2.099407434463501 0.8665421605110168 0.047421831637620926 10.0
2.076878786087036 0.8036279678344727 0.057807181030511856 10.0
2.0575265884399414 0.749328076839447 0.057281073182821274 10.0
2.0401251316070557 0.7023617625236511 0.050842128694057465 10.0
2.0251667499542236 0.6512237787246704 0.0493633858859539 10.0
2.008702516555786 0.5980067253112793 0.05311993137001991 10.0
1.990117073059082 0.5457442998886108 0.057767052203416824 10.0
1.8524324893951416 0.5396142601966858 0.051752764731645584 10.0
1.839737057685852 0.495626300573349 0.046534713357686996 10.0
1.8249458074569702 0.44670847058296204 0.050561245530843735 10.0
1.8113439083099365 0.40055808424949646 0.051338765770196915 9.0
1.7972460985183716 0.35492855310440063 0.0530768483877182 10.0
1.7840300798416138 0.30985838174819946 0.056008659303188324 10.0
1.770669937133789 0.2648572325706482 0.059681013226509094 10.0
1.7565733194351196 0.21821452677249908 0.06877771019935608 10.0
1.746950626373291 0.18461979925632477 0.05193351209163666 10.0
1.7329157590866089 0.13835477828979492 0.06263009458780289 10.0
1.721152901649475 0.09789933264255524 0.060398004949092865 10.0
1.7082029581069946 0.05519549548625946 0.06866183876991272 9.0
1.8098374605178833 -0.02290370501577854 0.07200618833303452 34.0
1.8008313179016113 -0.06546569615602493 0.07711613923311234 34.0
1.7878260612487793 -0.1026606485247612 0.07329947501420975 33.0
1.7726188898086548 -0.14369621872901917 0.08450059592723846 27.0
1.7622014284133911 -0.17567868530750275 0.06814753264188766 28.0
1.748415231704712 -0.21421901881694794 0.0710817202925682 28.0
1.7356685400009155 -0.25015589594841003 0.07028944790363312 12.0
1.7211802005767822 -0.2892795205116272 0.07949737459421158 10.0
1.7113606929779053 -0.32015013694763184 0.05566522479057312 13.0
1.6980215311050415 -0.3572981357574463 0.06159408017992973 13.0
1.6846073865890503 -0.394065797328949 0.06821427494287491 12.0
1.6712677478790283 -0.43051525950431824 0.07552219182252884 11.0
1.5650988817214966 -0.42872345447540283 0.060625866055488586 21.0
1.5541130304336548 -0.4653456211090088 0.06928510218858719 16.0
1.5433249473571777 -0.5012425184249878 0.07866171002388 11.0
1.533461332321167 -0.535007119178772 0.07380519807338715 14.0
1.5231943130493164 -0.5693613886833191 0.07448264211416245 22.0
1.512813687324524 -0.6041220426559448 0.08072729408740997 11.0
1.5029113292694092 -0.6379891633987427 0.08262339979410172 13.0
1.4927921295166016 -0.6721998453140259 0.08506088703870773 16.0
1.483430027961731 -0.7053319215774536 0.06812366843223572 30.0
1.4760631322860718 -0.740925133228302 0.08177745342254639 21.0
1.466544508934021 -0.7762466669082642 0.09097552299499512 20.0
1.4662574529647827 -0.8119950890541077 0.07100099325180054 23.0
4.999995231628418 9.60346794128418 1.9782863855361938 88.0
5.012676239013672 9.598359107971191 1.7980656623840332 74.0
5.022349834442139 9.596651077270508 1.6212282180786133 65.0
5.031315326690674 9.586453437805176 1.4388989210128784 37.0
4.047634124755859 6.744401931762695 1.5279285907745361 7.0
4.008718967437744 6.607938289642334 1.4135857820510864 6.0
3.9792826175689697 6.50345516204834 1.3006993532180786 6.0
3.8398633003234863 6.0837721824646 1.233996868133545 6.0
3.767056703567505 5.866081237792969 1.1497774124145508 23.0
3.810924768447876 5.967080116271973 1.0149061679840088 23.0
3.7854018211364746 5.876160621643066 0.9138213396072388 17.0
3.769116163253784 5.811424732208252 0.8082399964332581 17.0
3.8614962100982666 7.497713565826416 0.3127119541168213 5.0
3.8845486640930176 7.558601379394531 0.14945563673973083 5.0
3.806234121322632 7.282653331756592 0.07306422293186188 9.0
3.6796021461486816 6.844472408294678 0.05028769001364708 8.0
3.504322052001953 6.257568836212158 0.08926764130592346 9.0
3.4070639610290527 5.919870376586914 0.06658453494310379 9.0
3.3015689849853516 5.5513105392456055 0.0657653659582138 7.0
3.205007314682007 5.221932411193848 0.0648459866642952 7.0
3.090806484222412 4.829896450042725 0.09538543969392776 7.0
3.029446840286255 4.6158766746521 0.0710504800081253 7.0
2.950873613357544 4.344929218292236 0.0776873528957367 8.0
2.890291213989258 4.137795448303223 0.06574885547161102 8.0
3.097748279571533 3.8573296070098877 0.06625430285930634 7.0
3.032644033432007 3.6639368534088135 0.06342756003141403 8.0
2.9698262214660645 3.4754505157470703 0.0637025386095047 8.0
2.9119787216186523 3.306391477584839 0.06243167817592621 8.0
2.8462913036346436 3.112297773361206 0.07871263474225998 8.0
2.8031647205352783 2.982887029647827 0.06686874479055405 8.0
2.752396821975708 2.8334014415740967 0.07036847621202469 8.0
2.707897186279297 2.7017109394073486 0.0689917579293251 8.0
2.6577320098876953 2.5590317249298096 0.07858014851808548 8.0
2.622447967529297 2.4533586502075195 0.06926337629556656 8.0
2.5829010009765625 2.336920976638794 0.07168970257043839 9.0
2.5460879802703857 2.228152275085449 0.07020027190446854 9.0
2.317774534225464 2.177166223526001 0.06925290822982788 9.0
2.2926197052001953 2.088343620300293 0.060163553804159164 9.0
2.263551712036133 1.9887003898620605 0.062450628727674484 9.0
2.2375893592834473 1.8977166414260864 0.06191268190741539 9.0
2.2098450660705566 1.8076138496398926 0.06330358982086182 9.0
2.189406156539917 1.7363125085830688 0.05130068585276604 9.0
2.1656904220581055 1.6544344425201416 0.05086209997534752 9.0
2.143256187438965 1.5768134593963623 0.04929768294095993 9.0
2.1209824085235596 1.4998074769973755 0.049770500510931015 10.0
2.1019372940063477 1.4331470727920532 0.0411657877266407 10.0
2.0805680751800537 1.3604944944381714 0.04160714149475098 10.0
2.058521270751953 1.2858433723449707 0.04823771119117737 9.0
2.1857690811157227 1.160068154335022 0.06448148936033249 10.0
2.1640615463256836 1.0970522165298462 0.06324583292007446 10.0
2.147753953933716 1.0469188690185547 0.0487893782556057 10.0
2.126465082168579 0.9846575260162354 0.050510648638010025 10.0
2.1061689853668213 0.9261055588722229 0.049964964389801025 10.0
2.086254596710205 0.8679510951042175 0.05086441710591316 10.0
2.0653603076934814 0.807820737361908 0.057399217039346695 10.0
2.0463874340057373 0.7533870935440063 0.0568864569067955 10.0
2.0304481983184814 0.7090528011322021 0.04644332826137543 10.0
2.014711618423462 0.6550578474998474 0.04899253323674202 10.0
1.9986196756362915 0.6017279624938965 0.05276181921362877 10.0
1.9793152809143066 0.5467788577079773 0.06157789006829262 10.0
1.8427609205245972 0.542246401309967 0.05142755061388016 10.0
1.829559087753296 0.49566513299942017 0.050470445305109024 10.0
1.815922737121582 0.44915080070495605 0.050258103758096695 10.0
1.8018680810928345 0.4005364775657654 0.05538024380803108 10.0
1.7888644933700562 0.35718032717704773 0.052795588970184326 10.0
1.7759636640548706 0.3120196461677551 0.05573808401823044 10.0
1.7622004747390747 0.26476219296455383 0.06387050449848175 10.0
1.7491487264633179 0.22018897533416748 0.06852896511554718 10.0
1.739079475402832 0.18449923396110535 0.056213442236185074 10.0
1.7260481119155884 0.14016489684581757 0.062400322407484055 10.0
1.7139289379119873 0.09774749726057053 0.064766526222229 10.0
1.7019168138504028 0.05683646723628044 0.06845183670520782 10.0
1.8040943145751953 -0.020551161840558052 0.07179766148328781 32.0
1.7953859567642212 -0.06317393481731415 0.07691723108291626 32.0
1.7818341255187988 -0.10196218639612198 0.07780985534191132 28.0
1.767721176147461 -0.1415979266166687 0.08432096987962723 26.0
1.757524847984314 -0.17365549504756927 0.06797562539577484 28.0
1.7440083026885986 -0.21229055523872375 0.07091930508613586 28.0
1.7308038473129272 -0.2495204508304596 0.07493627071380615 17.0
1.7172988653182983 -0.28753748536109924 0.07935347408056259 10.0
1.7083488702774048 -0.3174290955066681 0.05068502947688103 10.0
1.6952452659606934 -0.3547442555427551 0.05660353973507881 10.0
1.6820634603500366 -0.3916797637939453 0.0632152259349823 10.0
1.668372392654419 -0.4291188716888428 0.07541295886039734 10.0
1.5621916055679321 -0.4280708432197571 0.06053081527352333 20.0
1.5514627695083618 -0.4647670388221741 0.06919877231121063 10.0
1.5409265756607056 -0.5007364749908447 0.07858393341302872 11.0
1.5312981605529785 -0.534570038318634 0.07373542338609695 10.0
1.5212712287902832 -0.56899493932724 0.07442104071378708 20.0
1.5109049081802368 -0.6042598485946655 0.08564991503953934 15.0
1.501053810119629 -0.638473629951477 0.09254394471645355 17.0
1.4914038181304932 -0.6723185777664185 0.09001265466213226 15.0
1.4824556112289429 -0.7052409052848816 0.06809429824352264 26.0
1.4753390550613403 -0.7408819198608398 0.0817561075091362 17.0
1.466194748878479 -0.7762312293052673 0.0859641507267952 17.0
1.466028094291687 -0.8120206594467163 0.07099499553442001 24.0
4.919278621673584 9.604540824890137 1.976333737373352 105.0
4.931944847106934 9.599505424499512 1.796521544456482 96.0
4.941592216491699 9.597857475280762 1.6200834512710571 95.0
4.952195644378662 9.592439651489258 1.437805414199829 62.0
4.044768333435059 6.908580780029297 1.5123660564422607 6.0
4.010095119476318 6.7809529304504395 1.3945380449295044 5.0
3.958803653717041 6.610208511352539 1.2874891757965088 5.0
3.801321268081665 6.128462314605713 1.2282190322875977 5.0
3.730015754699707 5.910181045532227 1.1435760259628296 20.0
3.7990241050720215 6.085877418518066 0.9947665929794312 14.0
3.787038803100586 6.0315704345703125 0.8846163749694824 13.0
3.779237985610962 5.989345550537109 0.7716720700263977 13.0
3.843773126602173 7.65494441986084 0.27814045548439026 6.0
3.8339555263519287 7.603289604187012 0.14047499001026154 6.0
3.7427494525909424 7.275496482849121 0.07736479490995407 8.0
3.620534896850586 6.841172218322754 0.05376468226313591 8.0
3.4533863067626953 6.266983985900879 0.08899151533842087 8.0
3.3571600914001465 5.924046516418457 0.06794710457324982 8.0
3.256896734237671 5.563934326171875 0.06425415724515915 7.0
3.1586804389953613 5.220278263092041 0.06831923872232437 7.0
3.0498642921447754 4.8365631103515625 0.09575959295034409 7.0
2.990002155303955 4.622143268585205 0.07155214995145798 7.0
2.9133284091949463 4.350685119628906 0.07832910120487213 8.0
2.854199171066284 4.143161773681641 0.06651592999696732 8.0
3.061838388442993 3.8599424362182617 0.06912355124950409 7.0
2.9980990886688232 3.666165590286255 0.06649157404899597 8.0
2.9381277561187744 3.4815618991851807 0.06480346620082855 8.0
2.881469249725342 3.3121376037597656 0.06364569067955017 8.0
2.81864857673645 3.1218068599700928 0.07774437963962555 8.0
2.7749321460723877 2.9879565238952637 0.06830522418022156 8.0
2.7267017364501953 2.8422603607177734 0.06946804374456406 8.0
2.6801722049713135 2.7021372318267822 0.07315144687891006 8.0
2.63249135017395 2.5632164478302 0.08033021539449692 9.0
2.5979535579681396 2.457338333129883 0.07110776752233505 9.0
2.5592310428619385 2.340669631958008 0.07362943887710571 9.0
2.523188591003418 2.2316906452178955 0.07223464548587799 9.0
2.295499324798584 2.179079055786133 0.07140348851680756 9.0
2.272132635116577 2.094010591506958 0.059472884982824326 9.0
2.2437610626220703 1.994167685508728 0.061783578246831894 9.0
2.2184338569641113 1.903004765510559 0.06126711517572403 9.0
2.191319465637207 1.8127111196517944 0.06267957389354706 9.0
2.171376943588257 1.7412664890289307 0.05069352313876152 9.0
2.1482326984405518 1.6592249870300293 0.050274305045604706 9.0
2.126340389251709 1.5814489126205444 0.04872826486825943 9.0
2.103537082672119 1.5007519721984863 0.05258747562766075 10.0
2.084970474243164 1.4340132474899292 0.0440593920648098 10.0
2.065161943435669 1.3646963834762573 0.041088931262493134 10.0
2.04363751411438 1.289894461631775 0.0477372370660305 9.0
2.171761989593506 1.165013313293457 0.06398837268352509 9.0
2.150494337081909 1.1018472909927368 0.0627681091427803 9.0
2.134535074234009 1.0515984296798706 0.04832376539707184 10.0
2.1136813163757324 0.9891904592514038 0.050060223788022995 10.0
