# .PCD v0.7 - Point Cloud Data
VERSION 0.7
FIELDS x y z intensity
SIZE 4 4 4 4
TYPE F F F F
COUNT 1 1 1 1
WIDTH 769
HEIGHT 1
VIEWPOINT 0 0 0 1 0 0 0
POINTS 769
DATA ascii
2.020169258117676 1.446761131286621 0.045366741716861725 10.0
2.001373529434204 1.3735182285308838 0.04601224511861801 10.0
1.9838299751281738 1.3050564527511597 0.04574795812368393 9.0
2.1142325401306152 1.1805416345596313 0.06562362611293793 9.0
2.09475040435791 1.1168633699417114 0.064520925283432 9.0
2.0813422203063965 1.0693902969360352 0.04647042602300644 10.0
2.0611190795898438 1.0033314228057861 0.052031610161066055 10.0
2.0395820140838623 0.9350631833076477 0.06306293606758118 10.0
2.0239481925964355 0.882441520690918 0.05650269612669945 10.0
2.0052006244659424 0.8217482566833496 0.0632120817899704 10.0
1.9902807474136353 0.7725098729133606 0.05492464080452919 10.0
1.9748550653457642 0.7248486280441284 0.04855520278215408 10.0
1.9610254764556885 0.6704050302505493 0.05121581628918648 10.0
1.9468190670013428 0.6166157722473145 0.05509469285607338 10.0
1.9294666051864624 0.5611013174057007 0.06402382254600525 10.0
1.793401837348938 0.5517966151237488 0.05402464047074318 10.0
1.7818474769592285 0.5048485994338989 0.05316499248147011 10.0
1.7698581218719482 0.4579542279243469 0.05304964259266853 10.0
1.7575273513793945 0.4089525640010834 0.05826989561319351 9.0
1.7453877925872803 0.3629123270511627 0.06015279144048691 9.0
1.7334485054016113 0.3152153789997101 0.06763952970504761 9.0
1.7239532470703125 0.27646151185035706 0.05813181772828102 9.0
1.7112065553665161 0.22716718912124634 0.0717833861708641 9.0
1.7023972272872925 0.19120600819587708 0.05954437702894211 10.0
1.6909418106079102 0.14652258157730103 0.06581799685955048 10.0
1.6814676523208618 0.1075785905122757 0.05908546969294548 9.0
1.6697709560394287 0.06255507469177246 0.07203236222267151 10.0
1.7735787630081177 -0.012750179506838322 0.08004968613386154 27.0
1.7671550512313843 -0.053888652473688126 0.08060099929571152 27.0
1.7564862966537476 -0.08999969810247421 0.07216501235961914 31.0
1.7437472343444824 -0.1301717907190323 0.0786975845694542 34.0
1.7339359521865845 -0.16403229534626007 0.06711991131305695 29.0
1.7224620580673218 -0.20181316137313843 0.06533116847276688 29.0
1.7105449438095093 -0.2395520806312561 0.06937114149332047 24.0
1.6983543634414673 -0.27809038758277893 0.07381235808134079 10.0
1.6897932291030884 -0.30945077538490295 0.05000392347574234 11.0
1.678002953529358 -0.3471943438053131 0.05596798285841942 11.0
1.6661219596862793 -0.3845604956150055 0.06262490153312683 12.0
1.6543023586273193 -0.42160505056381226 0.06997005641460419 13.0
1.5469746589660645 -0.426771342754364 0.06990207731723785 17.0
1.5381537675857544 -0.46215248107910156 0.06877092272043228 11.0
1.5288848876953125 -0.4984581172466278 0.07819852232933044 15.0
1.5199394226074219 -0.5337997674942017 0.08330664783716202 10.0
1.5113893747329712 -0.5678802132606506 0.07908392697572708 21.0
1.5024970769882202 -0.6029585003852844 0.08538646250963211 11.0
1.4938498735427856 -0.6374881267547607 0.0923207476735115 14.0
1.485384464263916 -0.6716516017913818 0.0898292139172554 14.0
1.4777277708053589 -0.7046880722045898 0.06295540928840637 32.0
1.4718551635742188 -0.7406237721443176 0.07665437459945679 20.0
1.463934063911438 -0.776348888874054 0.08090128749608994 22.0
1.4648844003677368 -0.8121727108955383 0.07096558064222336 20.0
4.5253424644470215 9.624611854553223 1.966203212738037 92.0
4.536518573760986 9.615144729614258 1.78822922706604 66.0
4.547475814819336 9.618542671203613 1.6131824254989624 61.0
4.559513092041016 9.618223190307617 1.4321861267089844 42.0
4.558724880218506 9.582733154296875 1.2596811056137085 71.0
3.918461322784424 7.4151692390441895 1.1862623691558838 9.0
3.8594470024108887 7.191565036773682 1.0768861770629883 9.0
3.8332862854003906 7.091163158416748 0.9560664892196655 10.0
3.830958127975464 7.0538482666015625 0.826574981212616 9.0
3.828063488006592 7.019708633422852 0.6969489455223083 9.0
3.796905279159546 6.894446849822998 0.5856892466545105 9.0
3.741553783416748 8.513741493225098 0.08798045665025711 9.0
3.5852298736572266 7.869258880615234 0.08373473584651947 9.0
3.439253568649292 7.2747111320495605 0.08785430341959 8.0
3.3358302116394043 6.850724220275879 0.06204351410269737 7.0
3.1924259662628174 6.285326957702637 0.09474080801010132 6.0
3.1035773754119873 5.920938968658447 0.08082643896341324 6.0
3.0136537551879883 5.548684597015381 0.08177579194307327 7.0
2.9368371963500977 5.238856315612793 0.07434865832328796 7.0
2.8449881076812744 4.865482330322266 0.09771165251731873 7.0
2.7915029525756836 4.644700527191162 0.0759354680776596 7.0
2.7255239486694336 4.375411033630371 0.08161596208810806 8.0
2.672557830810547 4.161630630493164 0.07237408310174942 8.0
2.889878988265991 3.89078426361084 0.07349514216184616 7.0
2.8343353271484375 3.699394702911377 0.06937772780656815 8.0
2.780860424041748 3.5129501819610596 0.06820816546678543 8.0
2.7301738262176514 3.3417904376983643 0.06754319369792938 8.0
2.672711133956909 3.145322799682617 0.0844709724187851 8.0
2.6350653171539307 3.014392852783203 0.0731685534119606 8.0
2.5906388759613037 2.863110303878784 0.07724075019359589 8.0
2.554389238357544 2.738086223602295 0.07136470824480057 8.0
2.508955717086792 2.589496374130249 0.08395995199680328 8.0
2.478152275085449 2.4825940132141113 0.07506933808326721 8.0
2.4435508251190186 2.364773988723755 0.0779324620962143 9.0
2.4126529693603516 2.2586770057678223 0.07408211380243301 9.0
2.1874656677246094 2.198106527328491 0.07361051440238953 9.0
2.1650514602661133 2.104517698287964 0.06777708977460861 9.0
2.1422412395477295 2.0116798877716064 0.06446988880634308 9.0
2.120128870010376 1.919784426689148 0.06418756395578384 9.0
2.0971930027008057 1.8324733972549438 0.06270913034677505 9.0
2.0797579288482666 1.7604154348373413 0.050869494676589966 9.0
2.0585362911224365 1.67399263381958 0.05385945737361908 9.0
2.041297435760498 1.602847695350647 0.045902762562036514 9.0
2.0203843116760254 1.517838954925537 0.053229235112667084 10.0
2.0041632652282715 1.4505399465560913 0.044839806854724884 10.0
1.9858791828155518 1.3771679401397705 0.04550231248140335 10.0
1.9688136577606201 1.3085854053497314 0.045253921300172806 9.0
2.1000845432281494 1.1849873065948486 0.06513627618551254 9.0
2.0810470581054688 1.121174693107605 0.06404878944158554 9.0
2.0679678916931152 1.0736054182052612 0.04600948095321655 10.0
2.0482068061828613 1.0074081420898438 0.05158644914627075 9.0
2.0271480083465576 0.9389935731887817 0.06263417750597 10.0
2.0108144283294678 0.8832827806472778 0.059956904500722885 10.0
1.9935581684112549 0.8254415988922119 0.06281036138534546 10.0
1.9779473543167114 0.7732433676719666 0.05850667506456375 10.0
1.9628719091415405 0.7255356311798096 0.05219719931483269 10.0
1.9504384994506836 0.6737914681434631 0.05084996670484543 10.0
1.9366083145141602 0.6199051141738892 0.05474139004945755 10.0
1.9206182956695557 0.5668702125549316 0.05952383205294609 10.0
1.783646821975708 0.5540169477462769 0.05370510742068291 10.0
1.7724202871322632 0.5069893002510071 0.05285629257559776 10.0
1.7614458799362183 0.46247607469558716 0.048455607146024704 10.0
1.7487703561782837 0.41092684864997864 0.05798342451453209 10.0
1.737607717514038 0.3671302795410156 0.05550004541873932 10.0
1.7259867191314697 0.3192838132381439 0.06295958906412125 10.0
1.7154985666275024 0.2760172188282013 0.06232854351401329 9.0
1.7037209272384644 0.2288254350423813 0.07153908163309097 9.0
1.6951611042022705 0.19280128180980682 0.05930836498737335 10.0
1.684018611907959 0.1480402946472168 0.06559235602617264 10.0
1.6748154163360596 0.10902976244688034 0.05886879935860634 10.0
1.663973331451416 0.06575633585453033 0.06720343232154846 10.0
1.7685346603393555 -0.008966155350208282 0.07519874721765518 23.0
1.762389898300171 -0.0502268448472023 0.07573028653860092 23.0
1.7512125968933105 -0.08801767975091934 0.07197700440883636 31.0
1.7394728660583496 -0.12682178616523743 0.07378984242677689 35.0
1.7298753261566162 -0.16082671284675598 0.06219479814171791 33.0
1.7179683446884155 -0.2000671774148941 0.06516985595226288 33.0
1.7069692611694336 -0.23665980994701385 0.06441600620746613 22.0
1.6937628984451294 -0.27765876054763794 0.07849427312612534 10.0
1.686049222946167 -0.30793315172195435 0.04986829683184624 10.0
1.6745233535766602 -0.3457568883895874 0.05584140866994858 10.0
1.6634694337844849 -0.38228604197502136 0.057624951004981995 10.0
1.650801658630371 -0.4211682975292206 0.07476028054952621 10.0
1.544055461883545 -0.426243394613266 0.06980912387371063 22.0
1.5354814529418945 -0.4616853892803192 0.06868614256381989 13.0
1.526731252670288 -0.4973798096179962 0.07317473739385605 12.0
1.5180145502090454 -0.5328603982925415 0.07827988266944885 12.0
1.5092308521270752 -0.5681113600730896 0.08399175107479095 21.0
1.5010172128677368 -0.6022963523864746 0.08035767078399658 12.0
1.49259352684021 -0.6369625329971313 0.08729307353496552 14.0
1.4843472242355347 -0.6712642908096313 0.08480352908372879 16.0
1.4765981435775757 -0.7048376798629761 0.06792059540748596 32.0
1.4711284637451172 -0.7406109571456909 0.07663355022668839 20.0
1.463457465171814 -0.7763896584510803 0.08088858425617218 20.0
1.4646562337875366 -0.8122078776359558 0.07095980644226074 26.0
4.448283672332764 9.631654739379883 1.9640960693359375 118.0
4.45808219909668 9.617447853088379 1.7865746021270752 107.0
4.467573165893555 9.616119384765625 1.6121326684951782 99.0
4.480979919433594 9.620665550231934 1.4311784505844116 89.0
4.487466812133789 9.609041213989258 1.2567540407180786 59.0
3.904839515686035 7.579723358154297 1.1654571294784546 10.0
3.847435235977173 7.3553314208984375 1.0536423921585083 10.0
3.829023838043213 7.278018951416016 0.9265475273132324 12.0
3.8241472244262695 7.230724811553955 0.7959092855453491 10.0
3.649707794189453 8.420323371887207 0.11097071319818497 9.0
3.5209290981292725 7.8696417808532715 0.08524467051029205 9.0
3.382556200027466 7.288258075714111 0.08598460257053375 7.0
3.282090663909912 6.86355447769165 0.06027154624462128 6.0
3.13808536529541 6.278534889221191 0.09873324632644653 6.0
3.052928924560547 5.918262958526611 0.08372995257377625 6.0
2.9678773880004883 5.554689884185791 0.08186949789524078 7.0
2.893228769302368 5.244357585906982 0.07459088414907455 7.0
2.805116653442383 4.874943256378174 0.09639810770750046 7.0
2.754286289215088 4.658318996429443 0.07287538796663284 7.0
2.6868505477905273 4.375046253204346 0.08416283130645752 8.0
2.636492967605591 4.165431499481201 0.07317201048135757 8.0
2.8541088104248047 3.891831159591675 0.07639891654253006 7.0
2.8039374351501465 3.713144302368164 0.06620565801858902 8.0
2.749086856842041 3.517685890197754 0.06933334469795227 8.0
2.7009317874908447 3.3504815101623535 0.06654561311006546 8.0
2.644843578338623 3.153620719909668 0.08351998776197433 8.0
2.6081106662750244 3.0224292278289795 0.07224851846694946 8.0
2.563432216644287 2.8666844367980957 0.0788068100810051 8.0
2.528062582015991 2.7414486408233643 0.07303042709827423 8.0
2.4849700927734375 2.596665620803833 0.08314090967178345 9.0
2.4549121856689453 2.489548921585083 0.07427558302879333 9.0
2.4211337566375732 2.371490955352783 0.07716666162014008 9.0
2.3909764289855957 2.2651801109313965 0.07334144413471222 9.0
2.166217088699341 2.20304012298584 0.07291260361671448 9.0
2.144455909729004 2.1092958450317383 0.06710069626569748 9.0
2.1232755184173584 2.020179033279419 0.06081555038690567 9.0
2.1008224487304688 1.924252986907959 0.06355372071266174 9.0
2.0775368213653564 1.8330024480819702 0.06522232294082642 9.0
2.0615627765655518 1.764603614807129 0.050272587686777115 9.0
2.040006637573242 1.674355149269104 0.05653424561023712 9.0
2.023275136947632 1.603142499923706 0.04865501448512077 9.0
2.002967596054077 1.518044114112854 0.05606146156787872 10.0
1.988131046295166 1.454207181930542 0.04431430995464325 10.0
1.9703596830368042 1.3807094097137451 0.04499378427863121 10.0
1.9537729024887085 1.3120094537734985 0.044761236757040024 9.0
2.084787130355835 1.186049222946167 0.06824938952922821 9.0
2.066209554672241 1.1221630573272705 0.0672335997223854 9.0
2.053474187850952 1.0745590925216675 0.04926076903939247 10.0
2.035266399383545 1.011394739151001 0.05114225298166275 10.0
2.015747308731079 0.945885181427002 0.05838733911514282 10.0
1.9997872114181519 0.8899997472763062 0.0556710921227932 10.0
1.9818902015686035 0.829053521156311 0.062409501522779465 10.0
1.9666433334350586 0.7767466902732849 0.05811823904514313 10.0
1.9528958797454834 0.7317340970039368 0.04779906943440437 10.0
1.9398280382156372 0.6771038174629211 0.050484899431467056 10.0
1.9263746738433838 0.6231231689453125 0.05438883230090141 10.0
1.9107557535171509 0.5699788928031921 0.059183914214372635 10.0
1.7724767923355103 0.5509654879570007 0.061810415238142014 10.0
1.7622928619384766 0.5065286755561829 0.056803204119205475 10.0
1.7516443729400635 0.46200689673423767 0.05245485529303551 10.0
1.740654468536377 0.4152393341064453 0.053360119462013245 9.0
1.7285045385360718 0.3666357100009918 0.05960209667682648 10.0
1.7178568840026855 0.3210412263870239 0.06269510835409164 10.0
1.7076706886291504 0.27770236134529114 0.062074024230241776 10.0
1.6968148946762085 0.232551708817482 0.06680592894554138 9.0
1.6884888410568237 0.1963956356048584 0.05454886704683304 10.0
1.677643060684204 0.15148666501045227 0.06080884486436844 10.0
1.668153166770935 0.11043447256088257 0.05865275487303734 10.0
1.6576143503189087 0.06708808243274689 0.06699740141630173 9.0
1.7619401216506958 -0.008588963188230991 0.07963893562555313 23.0
1.7560911178588867 -0.04981282353401184 0.0802081897854805 23.0
1.7451977729797363 -0.08760625123977661 0.07649233937263489 34.0
1.7337496280670166 -0.12641587853431702 0.07834120839834213 37.0
1.7250951528549194 -0.15903060138225555 0.062024395912885666 34.0
1.7134625911712646 -0.1983526349067688 0.06500881910324097 34.0
1.7020742893218994 -0.23625251650810242 0.06906690448522568 31.0
1.6898009777069092 -0.2761085331439972 0.07835183292627335 11.0
1.682895541191101 -0.30536603927612305 0.04488685354590416 10.0
1.6710338592529297 -0.34434375166893005 0.05571502447128296 10.0
1.659677267074585 -0.38186943531036377 0.06238990277051926 13.0
1.6473052501678467 -0.42075780034065247 0.07955114543437958 13.0
1.541427493095398 -0.4249044358730316 0.06479497253894806 18.0
1.5328059196472168 -0.4612370431423187 0.06860163807868958 13.0
1.5243055820465088 -0.49699071049690247 0.07309846580028534 19.0
1.51583731174469 -0.5325302481651306 0.07821179926395416 11.0
1.5075222253799438 -0.5673238635063171 0.07896357774734497 22.0
1.499325156211853 -0.6020826697349548 0.08030559122562408 15.0
1.4911444187164307 -0.6368054151535034 0.08724898099899292 16.0
1.4833039045333862 -0.6708850860595703 0.07977806776762009 19.0
1.4757685661315918 -0.7045944929122925 0.06289811432361603 29.0
1.4702650308609009 -0.7407211065292358 0.0816093161702156 21.0
1.462981104850769 -0.7764337062835693 0.0808759555220604 21.0
1.464428424835205 -0.8122446537017822 0.07095407694578171 21.0
4.3726420402526855 9.642937660217285 1.9618756771087646 80.0
4.381134986877441 9.623970985412598 1.7847270965576172 69.0
4.391974925994873 9.627487182617188 1.6102365255355835 68.0
4.402564525604248 9.622516632080078 1.4301857948303223 47.0
4.407721042633057 9.606151580810547 1.2565327882766724 97.0
4.408382415771484 9.567484855651855 1.0853137969970703 69.0
3.8374054431915283 7.533568859100342 1.0282652378082275 9.0
3.8153364658355713 7.441468715667725 0.9007951021194458 10.0
3.808042526245117 7.384227752685547 0.7694103717803955 8.0
3.6073901653289795 8.530289649963379 0.08695901185274124 8.0
3.4578444957733154 7.8742828369140625 0.08559328317642212 8.0
3.324651002883911 7.296697616577148 0.08537202328443527 6.0
3.224928379058838 6.861939907073975 0.06249828264117241 6.0
3.081714630126953 6.261997699737549 0.10555775463581085 6.0
3.004603147506714 5.924502372741699 0.08366841822862625 6.0
2.923191785812378 5.56498908996582 0.08040329813957214 7.0
2.8496150970458984 5.249547481536865 0.0748390331864357 6.0
2.7630012035369873 4.874993801116943 0.09853144735097885 8.0
2.7126054763793945 4.65353536605835 0.07701028883457184 8.0
2.650402307510376 4.383413314819336 0.08296756446361542 8.0
2.599360227584839 4.164495468139648 0.07592634856700897 8.0
2.819711208343506 3.896993637084961 0.07729284465312958 8.0
2.7694807052612305 3.7136435508728027 0.06930616497993469 8.0
2.7186172008514404 3.5265049934387207 0.06829851865768433 8.0
2.670330047607422 3.354688882827759 0.0677872896194458 8.0
2.6169185638427734 3.161724090576172 0.08257117122411728 8.0
2.5798134803771973 3.0260729789733887 0.07371124625205994 8.0
2.537510395050049 2.8742260932922363 0.0779256746172905 8.0
2.501742362976074 2.7446186542510986 0.07469983398914337 8.0
2.46219801902771 2.607753038406372 0.07973287999629974 8.0
2.431623697280884 2.4963414669036865 0.07348363846540451 8.0
2.3999171257019043 2.3820533752441406 0.0736769363284111 9.0
2.3667798042297363 2.2636170387268066 0.07819046825170517 9.0
2.14493465423584 2.207824945449829 0.07221664488315582 9.0
2.1228630542755127 2.1099984645843506 0.06936100870370865 9.0
2.102313756942749 2.020782232284546 0.06316176056861877 9.0
2.0814855098724365 1.9285866022109985 0.06292164325714111 9.0
2.0588371753692627 1.8371762037277222 0.06461142003536224 9.0
2.0424160957336426 1.7649269104003906 0.05286792665719986 9.0
2.022413969039917 1.6782691478729248 0.05595974251627922 9.0
2.005276918411255 1.6033058166503906 0.05141076073050499 9.0
1.987356424331665 1.5252842903137207 0.05214879661798477 10.0
1.9720737934112549 1.4577622413635254 0.043790291994810104 10.0
1.9548157453536987 1.384142518043518 0.04448667913675308 10.0
1.9378539323806763 1.3119134902954102 0.04782090336084366 10.0
2.07060170173645 1.190289855003357 0.06776497513055801 10.0
2.0524699687957764 1.1262753009796143 0.06676433235406876 10.0
2.040064811706543 1.0785801410675049 0.04880262166261673 9.0
2.021245002746582 1.0121757984161377 0.0544651560485363 9.0
2.002199411392212 0.9465934634208679 0.061779458075761795 10.0
1.98664391040802 0.890658974647522 0.05912858620285988 10.0
1.970197319984436 0.8325837850570679 0.0620095320045948 10.0
1.9553152322769165 0.7801710963249207 0.05773066356778145 10.0
1.941880702972412 0.7350616455078125 0.047422245144844055 10.0
1.9291948080062866 0.6803421378135681 0.050120625644922256 10.0
1.916118860244751 0.6262696385383606 0.05403703823685646 10.0
1.8999357223510742 0.5704095363616943 0.06300602108240128 10.0
1.7634103298187256 0.5556471943855286 0.057281333953142166 10.0
1.7535219192504883 0.5110729932785034 0.05224151909351349 10.0
1.741864562034607 0.46146634221076965 0.05645610764622688 10.0
1.7318534851074219 0.4170948565006256 0.05307472124695778 9.0
1.7200437784194946 0.36840882897377014 0.05932794138789177 10.0
1.7091083526611328 0.3204769492149353 0.06684768944978714 10.0
1.699831247329712 0.27933281660079956 0.06182023882865906 9.0
1.6892913579940796 0.23410846292972565 0.06656253337860107 9.0
1.6806561946868896 0.1958400160074234 0.0588383749127388 10.0
1.6701409816741943 0.15093038976192474 0.06514303386211395 10.0
1.661481261253357 0.11179262399673462 0.05843734368681908 9.0
1.650734782218933 0.0665418729186058 0.07141557335853577 10.0
1.7568423748016357 -0.004877626895904541 0.07478789985179901 24.0
1.7512739896774292 -0.0462198331952095 0.07533735036849976 24.0
1.740624189376831 -0.08416440337896347 0.071602001786232 36.0
1.7294275760650635 -0.12312787026166916 0.07343332469463348 33.0
1.7196263074874878 -0.1586557924747467 0.06660981476306915 33.0
1.7089449167251587 -0.19666962325572968 0.06484805792570114 33.0
1.6971865892410278 -0.2358819842338562 0.07371824234724045 35.0
1.6864423751831055 -0.27342960238456726 0.0733841210603714 10.0
1.678529977798462 -0.3049764931201935 0.049597691744565964 11.0
1.667534589767456 -0.34295499324798584 0.05558884143829346 11.0
1.6558899879455566 -0.38148123025894165 0.06715555489063263 13.0
1.6448725461959839 -0.41868260502815247 0.07454389333724976 10.0
1.5384947061538696 -0.4244162440299988 0.06470240652561188 21.0
1.5303981304168701 -0.460053950548172 0.06358173489570618 15.0
1.5218772888183594 -0.4966185688972473 0.07302244752645493 16.0
1.513657808303833 -0.5322153568267822 0.07814394682645798 16.0
1.505803108215332 -0.5665487051010132 0.07393535226583481 21.0
1.4976316690444946 -0.6018808484077454 0.0802537053823471 12.0
1.489694356918335 -0.6366584300994873 0.08720505982637405 15.0
1.4820908308029175 -0.6707934737205505 0.079741932451725 15.0
1.4747885465621948 -0.7045579552650452 0.06286965310573578 30.0
1.4696749448776245 -0.7406005263328552 0.07659219205379486 16.0
1.4625049829483032 -0.776481032371521 0.08086340874433517 20.0
1.4642008543014526 -0.8122830390930176 0.07094838470220566 27.0
4.290334701538086 9.629585266113281 1.960301160812378 118.0
4.304244041442871 9.629926681518555 1.7828922271728516 107.0
4.315026760101318 9.633499145507812 1.6086397171020508 104.0
4.322930335998535 9.618985176086426 1.4295793771743774 87.0
4.3335466384887695 9.621834754943848 1.2545225620269775 75.0
4.341193675994873 9.607075691223145 1.0807344913482666 60.0
3.5169637203216553 8.435585021972656 0.11001455038785934 6.0
3.3947949409484863 7.878468036651611 0.085952028632164 6.0
3.263477325439453 7.290571212768555 0.08852654695510864 6.0
3.1657207012176514 6.8505120277404785 0.06740124523639679 6.0
3.029949188232422 6.263726711273193 0.10675769299268723 7.0
2.955197811126709 5.925745010375977 0.0851023718714714 7.0
2.877368688583374 5.570348739624023 0.0805080458521843 8.0
2.8049373626708984 5.249824523925781 0.07673676311969757 7.0
2.7209506034851074 4.874735355377197 0.1006728857755661 8.0
2.672107696533203 4.652984142303467 0.07935599982738495 8.0
2.612848997116089 4.387010097503662 0.08365146815776825 7.0
2.563340902328491 4.167771816253662 0.07673603296279907 8.0
2.7865943908691406 3.9062979221343994 0.07617359608411789 7.0
2.7350823879241943 3.713885545730591 0.07241334766149521 8.0
2.6868109703063965 3.5307888984680176 0.06943207234144211 8.0
2.639730215072632 3.3586747646331787 0.06903310865163803 8.0
2.5864102840423584 3.161132335662842 0.08624586462974548 8.0
2.551521062850952 3.029510736465454 0.07517789304256439 8.0
2.5102860927581787 2.8774120807647705 0.07949904352426529 8.0
2.4766733646392822 2.7517318725585938 0.07385121285915375 8.0
2.4343831539154053 2.6023128032684326 0.08669167757034302 9.0
2.4058356285095215 2.494866371154785 0.07801344245672226 9.0
2.374943256378174 2.3804445266723633 0.0783669501543045 9.0
2.3462798595428467 2.273766279220581 0.07466015219688416 9.0
2.1226742267608643 2.208477020263672 0.07439225167036057 9.0
2.1022303104400635 2.1144826412200928 0.06868930906057358 9.0
2.081376314163208 2.021233320236206 0.06551138311624527 9.0
2.0612006187438965 1.9289429187774658 0.06535600870847702 9.0
2.0401086807250977 1.841219186782837 0.06400224566459656 9.0
2.0250868797302246 1.7725985050201416 0.04908379912376404 9.0
2.003908157348633 1.6783684492111206 0.058640338480472565 9.0
1.9890553951263428 1.610617995262146 0.047540243715047836 9.0
1.9708043336868286 1.5288337469100952 0.05161087214946747 10.0
1.9559919834136963 1.4612051248550415 0.043267764151096344 10.0
1.9384058713912964 1.3839915990829468 0.04747602343559265 10.0
1.921960473060608 1.3117022514343262 0.050883542746305466 9.0
2.056386947631836 1.1944315433502197 0.06728167086839676 9.0
2.0387022495269775 1.1302917003631592 0.06629613041877747 9.0
2.026627779006958 1.082507610321045 0.048345521092414856 10.0
2.0072410106658936 1.0128527879714966 0.05779105797410011 10.0
1.9907023906707764 0.9533235430717468 0.05753305181860924 10.0
1.9755228757858276 0.8972198963165283 0.05484316870570183 10.0
1.9584800004959106 0.8360324501991272 0.06161046400666237 10.0
1.9429912567138672 0.7806420922279358 0.06131832301616669 10.0
1.9308425188064575 0.7383121252059937 0.047046273946762085 10.0
1.918539047241211 0.6835060119628906 0.04975717514753342 10.0
1.90584135055542 0.6293443441390991 0.05368603393435478 10.0
1.8900494575500488 0.5733743906021118 0.06266824156045914 10.0
1.752967357635498 0.5550491809844971 0.061178337782621384 9.0
1.7434030771255493 0.5104726552963257 0.056191395968198776 9.0
1.7333756685256958 0.46580490469932556 0.05186348035931587 10.0
1.7230396270751953 0.4188888370990753 0.05279015749692917 9.0
1.7115707397460938 0.3701228201389313 0.05905459076166153 10.0
1.7015613317489624 0.32438555359840393 0.06216845288872719 10.0
1.6914052963256836 0.27871081233024597 0.06602148711681366 9.0
1.6817572116851807 0.23561258614063263 0.06631986051797867 10.0
1.6739331483840942 0.19933901727199554 0.05407930165529251 10.0
1.6631875038146973 0.15230269730091095 0.0649193748831749 10.0
1.6553140878677368 0.11501265317201614 0.053629789501428604 9.0
1.6448694467544556 0.06961818039417267 0.0665871649980545 10.0
1.7509751319885254 -0.0028947186656296253 0.07458307594060898 25.0
1.7456953525543213 -0.044274624437093735 0.07514142990112305 25.0
1.7353100776672363 -0.08229333162307739 0.0714150220155716 30.0
1.7243858575820923 -0.12133356183767319 0.07325555384159088 30.0
1.7154974937438965 -0.15553884208202362 0.0616844967007637 31.0
1.7044155597686768 -0.19501815736293793 0.064687579870224 31.0
1.6935583353042603 -0.2330716848373413 0.06876370310783386 30.0
1.682450294494629 -0.27193161845207214 0.07324185222387314 10.0
1.6753393411636353 -0.30245569348335266 0.044616106897592545 10.0
1.6640256643295288 -0.3415907621383667 0.05546286702156067 10.0
1.6531956195831299 -0.379268616437912 0.06215561926364899 16.0
1.6413720846176147 -0.4183190166950226 0.07933555543422699 10.0
1.5352765321731567 -0.4247819781303406 0.06953204423189163 17.0
1.5277106761932373 -0.45964205265045166 0.06349760293960571 11.0
1.5194463729858398 -0.49626338481903076 0.0729466900229454 12.0
1.5114762783050537 -0.5319156050682068 0.0780763253569603 13.0
1.5038607120513916 -0.5663037896156311 0.07387557625770569 21.0
1.4959368705749512 -0.6016908288002014 0.08020201325416565 10.0
1.4882433414459229 -0.636521577835083 0.08716130256652832 17.0
1.4808770418167114 -0.6707103252410889 0.07970594614744186 15.0
1.473664402961731 -0.7047282457351685 0.06783539056777954 34.0
1.468814492225647 -0.7407207489013672 0.08156823366880417 23.0
1.4620293378829956 -0.7765317559242249 0.08085092902183533 21.0
1.4639735221862793 -0.8123229742050171 0.07094272971153259 24.0
4.21354866027832 9.634902954101562 1.958235502243042 87.0
4.227415561676025 9.6353178024292 1.7810701131820679 68.0
4.238139629364014 9.638946533203125 1.6070556640625 69.0
4.2447991371154785 9.619661331176758 1.4286177158355713 43.0
4.256673812866211 9.627385139465332 1.2534257173538208 98.0
4.264390468597412 9.6126708984375 1.0798789262771606 101.0
4.277445316314697 9.6246976852417 0.9046211242675781 82.0
3.4469079971313477 8.425832748413086 0.11338797211647034 6.0
3.329683780670166 7.872710704803467 0.08867128938436508 6.0
3.202481985092163 7.283990859985352 0.09169474244117737 6.0
3.109896659851074 6.852747440338135 0.0683196634054184 5.0
2.9823977947235107 6.283811092376709 0.10232003033161163 8.0
2.9048140048980713 5.921969890594482 0.08803483098745346 8.0
2.832575798034668 5.580015182495117 0.07905115187168121 8.0
2.760324001312256 5.249776363372803 0.07864290475845337 7.0
2.679992437362671 4.878751277923584 0.10109835118055344 8.0
2.6337203979492188 4.661240100860596 0.07810798287391663 8.0
2.5732717514038086 4.381295680999756 0.08809453994035721 8.0
2.5273308753967285 4.170790195465088 0.07755103707313538 8.0
2.7534127235412598 3.915370225906372 0.07505704462528229 8.0
2.703244924545288 3.7226028442382812 0.07134178280830383 8.0
2.653761148452759 3.5305113792419434 0.07273668050765991 8.0
2.6078951358795166 3.3581435680389404 0.07252209633588791 8.0
2.5596678256988525 3.173086166381836 0.08299215883016586 8.0
2.524463415145874 3.0369644165039062 0.07426632195711136 8.0
2.4842910766601562 2.884582757949829 0.07862307876348495 8.0
2.45034122467041 2.7545270919799805 0.0755276009440422 8.0
2.4103100299835205 2.608962059020996 0.08588030934333801 9.0
2.382511615753174 2.501317262649536 0.0772271528840065 9.0
2.351228713989258 2.382664918899536 0.08033527433872223 9.0
2.3244998455047607 2.27980637550354 0.07392559945583344 9.0
2.1004385948181152 2.2089686393737793 0.07657168805599213 9.0
2.081566572189331 2.1188223361968994 0.0680195540189743 9.0
2.0613632202148438 2.0254294872283936 0.06486285477876663 9.0
2.0418319702148438 1.9330003261566162 0.06472843140363693 9.0
2.0204734802246094 1.8413323163986206 0.06652415543794632 9.0
2.0059382915496826 1.7726556062698364 0.05168427899479866 9.0
1.98628830909729 1.6820311546325684 0.05806998163461685 9.0
1.971057653427124 1.6105313301086426 0.05030088126659393 9.0
1.9533884525299072 1.5286760330200195 0.054450202733278275 10.0
1.9390578269958496 1.4609993696212769 0.04618322104215622 10.0
1.9228401184082031 1.3872021436691284 0.046972643584012985 10.0
1.9069000482559204 1.3148002624511719 0.050396665930747986 9.0
2.04109525680542 1.1951680183410645 0.07040153443813324 9.0
2.023871898651123 1.1309646368026733 0.0694873034954071 9.0
2.012141227722168 1.0831527709960938 0.051603272557258606 9.0
1.9942646026611328 1.0165547132492065 0.05735139921307564 10.0
1.977146863937378 0.9538441300392151 0.060928620398044586 10.0
1.9623727798461914 0.8976969718933105 0.05830401927232742 10.0
1.946738839149475 0.8393991589546204 0.06121231988072395 10.0
1.9325884580612183 0.7867821455001831 0.05695815756917 10.0
1.918846845626831 0.738667368888855 0.05069439113140106 10.0
1.907861351966858 0.6865953803062439 0.049394555389881134 10.0
1.8964564800262451 0.6350337266921997 0.04921916127204895 10.0
1.881041169166565 0.5788905620574951 0.05816865339875221 10.0
1.7438350915908813 0.5596020817756653 0.05664990842342377 10.0
1.7339378595352173 0.5123456120491028 0.055886853486299515 10.0
1.7242218255996704 0.4676080346107483 0.05156911164522171 9.0
1.7136110067367554 0.41821134090423584 0.0568457767367363 9.0
1.7036734819412231 0.37411829829216003 0.05440286919474602 10.0
1.693969964981079 0.3282433748245239 0.057489197701215744 10.0
1.6835596561431885 0.28022852540016174 0.0657697319984436 10.0
1.6736679077148438 0.23493458330631256 0.07056894898414612 10.0
1.6661101579666138 0.19867582619190216 0.05837118625640869 10.0
1.6562244892120361 0.1536264270544052 0.06469639390707016 10.0
1.6481099128723145 0.11436893045902252 0.05800847336649895 10.0
1.6384841203689575 0.07081642746925354 0.0663829892873764 10.0
1.7443758249282837 -0.0026529114693403244 0.0790257677435875 28.0
1.7393912076950073 -0.043989814817905426 0.07962170243263245 28.0
1.7299829721450806 -0.08045940846204758 0.07122839987277985 36.0
1.7186572551727295 -0.12104478478431702 0.07780905812978745 35.0
1.7100251913070679 -0.155238538980484 0.06627127528190613 30.0
1.6992387771606445 -0.19471579790115356 0.06930869072675705 30.0
1.6892839670181274 -0.23152592778205872 0.06861250847578049 31.0
1.6778512001037598 -0.27162450551986694 0.07792598009109497 13.0
1.67097008228302 -0.3021251857280731 0.04932799190282822 10.0
1.660507321357727 -0.34025105834007263 0.055337101221084595 10.0
1.6494046449661255 -0.3789314031600952 0.0669221580028534 15.0
1.6383928060531616 -0.4171307384967804 0.0792280063033104 14.0
1.532068133354187 -0.4251702129840851 0.07436263561248779 20.0
1.5247615575790405 -0.46000412106513977 0.06834981590509415 16.0
1.5170131921768188 -0.4959252178668976 0.07287120074033737 18.0
1.5092926025390625 -0.5316311120986938 0.07800894975662231 17.0
1.5019166469573975 -0.5660724639892578 0.07381601631641388 21.0
1.494240641593933 -0.6015126705169678 0.08015051484107971 14.0
1.4867912530899048 -0.6363948583602905 0.08711772412061691 16.0
1.4798214435577393 -0.6703558564186096 0.0746803879737854 19.0
1.4728279113769531 -0.7045053839683533 0.06281311810016632 30.0
1.4682213068008423 -0.7406103610992432 0.07655122876167297 20.0
1.461670994758606 -0.7765511870384216 0.07583999633789062 22.0
1.4637465476989746 -0.8123645186424255 0.07093711197376251 28.0
4.139355182647705 9.64932918548584 1.9559240341186523 87.0
4.150651931762695 9.64014720916748 1.7792608737945557 106.0
4.161317825317383 9.643829345703125 1.6054846048355103 109.0
4.168076038360596 9.6245756149292 1.4272972345352173 43.0
4.179864406585693 9.632369995117188 1.252341866493225 65.0
4.191495418548584 9.632113456726074 1.0774356126785278 68.0
4.203158855438232 9.639403343200684 0.9027858376502991 64.0
4.209506511688232 9.619003295898438 0.7272820472717285 64.0
4.221220970153809 9.640511512756348 0.5467603802680969 96.0
4.235114574432373 9.648114204406738 0.36697426438331604 89.0
3.38014554977417 8.429869651794434 0.11348560452461243 6.0
3.26373028755188 7.861717700958252 0.09258203208446503 6.0
3.1416659355163574 7.276955604553223 0.09487688541412354 6.0
3.0531117916107178 6.849868297576904 0.07058175653219223 6.0
2.9265851974487305 6.266060829162598 0.10918401181697845 8.0
2.856564998626709 5.927155017852783 0.08799605071544647 8.0
2.786715269088745 5.5847272872924805 0.07916772365570068 8.0
2.716773748397827 5.2540178298950195 0.07891135662794113 7.0
2.639040231704712 4.882474899291992 0.10152968019247055 8.0
2.594287395477295 4.664669990539551 0.0786651149392128 8.0
2.535799026489258 4.384342193603516 0.08879147469997406 8.0
2.491332769393921 4.173550128936768 0.07837165147066116 8.0
2.7177224159240723 3.915395975112915 0.07798301428556442 7.0
2.670128107070923 3.7267234325408936 0.07236651331186295 8.0
2.6232047080993652 3.538666009902954 0.07171236723661423 8.0
2.578542470932007 3.3659818172454834 0.0715380385518074 8.0
2.5304057598114014 3.176328659057617 0.08436359465122223 8.0
2.4961562156677246 3.0399997234344482 0.07574064284563065 8.0
2.45705509185791 2.8873813152313232 0.08020392060279846 8.0
2.4240195751190186 2.757131576538086 0.0772077888250351 8.0
2.3861911296844482 2.6154427528381348 0.08507093787193298 8.0
2.3603124618530273 2.5116732120513916 0.07378091663122177 8.0
2.3286893367767334 2.388737678527832 0.07957857847213745 9.0
2.3003711700439453 2.2777323722839355 0.07878650724887848 9.0
2.07822847366333 2.2092995643615723 0.07875499129295349 9.0
2.059992551803589 2.1190688610076904 0.07028931379318237 9.0
2.0413215160369873 2.0294854640960693 0.0642162412405014 9.0
2.0224356651306152 1.9369224309921265 0.06410270929336548 9.0
2.0008649826049805 1.8413033485412598 0.06904960423707962 9.0
1.9876596927642822 1.776328682899475 0.051095061004161835 9.0
1.9686431884765625 1.6855701208114624 0.05750131979584694 9.0
1.9539110660552979 1.613964557647705 0.04974839463829994 9.0
1.9368137121200562 1.5319890975952148 0.05391626060009003 10.0
1.9229545593261719 1.4642122983932495 0.045664578676223755 10.0
1.9064598083496094 1.3868186473846436 0.04996689036488533 10.0
1.8910365104675293 1.3143635988235474 0.05346455052495003 9.0
2.0268476009368896 1.1991041898727417 0.06992130726575851 9.0
2.0090603828430176 1.1315281391143799 0.07268115133047104 9.0
1.9986732006072998 1.086885929107666 0.05114908516407013 10.0
1.9802759885787964 1.0170315504074097 0.06068140268325806 10.0
1.9645832777023315 0.9573379755020142 0.06050470843911171 10.0
1.9502007961273193 0.9010887145996094 0.057893190532922745 10.0
1.9349744319915771 0.8426836729049683 0.06081512197852135 10.0
1.921190857887268 0.7899683713912964 0.05657326430082321 10.0
1.9068697690963745 0.7389341592788696 0.054344527423381805 10.0
1.8962572813034058 0.6868519186973572 0.05310411378741264 10.0
1.8852229118347168 0.635278046131134 0.05298644304275513 10.0
1.8710955381393433 0.5817224979400635 0.0578317865729332 10.0
1.7340271472930908 0.5614768862724304 0.05633562430739403 9.0
1.725071907043457 0.5167024731636047 0.05132613331079483 9.0
1.7144571542739868 0.4668651819229126 0.05557474493980408 10.0
1.7042052745819092 0.4174657464027405 0.06090360879898071 9.0
1.6945898532867432 0.3733731806278229 0.058510370552539825 10.0
1.68522047996521 0.3275018632411957 0.06164497137069702 10.0
1.676247239112854 0.2838951647281647 0.061063457280397415 10.0
1.6661288738250732 0.2363305240869522 0.0703282430768013 10.0
1.6588226556777954 0.20001748204231262 0.058138664811849594 10.0
1.6492522954940796 0.15490145981311798 0.06447410583496094 10.0
1.6414109468460083 0.1155870258808136 0.05779503285884857 10.0
1.6316189765930176 0.07012900710105896 0.07080433517694473 10.0
1.7384939193725586 -0.0007561598904430866 0.07882221043109894 21.0
1.7337980270385742 -0.04212673008441925 0.07942697405815125 21.0
1.7246432304382324 -0.07866278290748596 0.07104214280843735 37.0
1.71360182762146 -0.11932490766048431 0.0776323527097702 34.0
1.7052069902420044 -0.15358029305934906 0.06610248982906342 36.0
1.6946967840194702 -0.1931312531232834 0.06914915889501572 36.0
1.6843913793563843 -0.2312549352645874 0.07326565682888031 37.0
1.6744353771209717 -0.26901939511299133 0.0729580745100975 15.0
1.66717529296875 -0.30073919892311096 0.049193497747182846 10.0
1.6569796800613403 -0.3389359414577484 0.05521155148744583 10.0
1.646148681640625 -0.37769052386283875 0.06680575013160706 14.0
1.6354053020477295 -0.415963351726532 0.07912063598632812 10.0
1.5294077396392822 -0.4239100217819214 0.06934885680675507 17.0
1.5223274230957031 -0.4588746726512909 0.06333021074533463 11.0
1.5145775079727173 -0.4956039786338806 0.07279597222805023 18.0
1.5071070194244385 -0.5313619375228882 0.07794181257486343 13.0
1.4999709129333496 -0.5658546686172485 0.07375667989253998 28.0
1.492543339729309 -0.6013463735580444 0.0800992101430893 17.0
1.485166072845459 -0.6366384029388428 0.09205830097198486 16.0
1.4784479141235352 -0.6705694198608398 0.07963442802429199 17.0
1.4718472957611084 -0.7044894099235535 0.06278503686189651 29.0
1.4674946069717407 -0.7406229376792908 0.07653089612722397 23.0
1.4611951112747192 -0.7766087055206299 0.07582765072584152 22.0
1.463519811630249 -0.8124076724052429 0.07093153148889542 20.0
4.065095901489258 9.663227081298828 1.9536210298538208 83.0
4.077662467956543 9.658934593200684 1.7768275737762451 66.0
4.085801601409912 9.652987480163574 1.6036338806152344 64.0
4.092662334442139 9.633759498596191 1.425614595413208 44.0
4.104367733001709 9.64161491394043 1.2508158683776855 101.0
4.114723205566406 9.636611938476562 1.0766022205352783 98.0
4.123805999755859 9.634370803833008 0.9034128189086914 103.0
4.132763862609863 9.623620986938477 0.7269262671470642 103.0
4.148059368133545 9.659546852111816 0.5443174242973328 67.0
4.159369468688965 9.657681465148926 0.3662322461605072 60.0
4.14854097366333 9.541760444641113 0.028939692303538322 32.0
3.310467004776001 8.419093132019043 0.11689016968011856 6.0
3.197037935256958 7.845474720001221 0.0976867526769638 6.0
3.081033945083618 7.269472599029541 0.09807298332452774 6.0
2.995469093322754 6.841857433319092 0.07419103384017944 7.0
2.874993085861206 6.266666889190674 0.11041054874658585 9.0
2.8083128929138184 5.9319963455200195 0.08796390891075134 9.0
2.739886522293091 5.584465980529785 0.08086095005273819 8.0
2.6741912364959717 5.262571334838867 0.07753877341747284 7.0
2.5980947017669678 4.885905742645264 0.10196691006422043 8.0
2.5539069175720215 4.663253307342529 0.08103056997060776 8.0
2.4983386993408203 4.387121200561523 0.08949372917413712 8.0
2.4544005393981934 4.171548843383789 0.08115220069885254 8.0
2.6844801902770996 3.9239885807037354 0.07687409967184067 8.0
2.6370136737823486 3.730605125427246 0.0733962133526802 8.0
2.5914082527160645 3.542259931564331 0.07285966724157333 8.0
2.547957181930542 3.3693034648895264 0.07279723137617111 8.0
2.5011513233184814 3.1793594360351562 0.0857398584485054 8.0
2.4690263271331787 3.0470669269561768 0.07483457028865814 8.0
2.4298298358917236 2.8899824619293213 0.08178868144750595 8.0
2.398865222930908 2.763702630996704 0.0763673260807991 8.0
2.3597333431243896 2.613520383834839 0.08945286273956299 9.0
2.3345916271209717 2.5096538066864014 0.07832324504852295 9.0
2.3049752712249756 2.390619993209839 0.08155327290296555 8.0
2.2785651683807373 2.2834527492523193 0.07805746048688889 9.0
2.0569052696228027 2.2134716510772705 0.07806983590126038 9.0
2.0384457111358643 2.119159698486328 0.07256263494491577 9.0
2.0204076766967773 2.029494524002075 0.06657516956329346 9.0
2.00217604637146 1.9368500709533691 0.06654639542102814 9.0
1.9829351902008057 1.8487526178359985 0.06531650573015213 9.0
1.969355821609497 1.7798739671707153 0.05050763115286827 9.0
1.9509741067886353 1.6889864206314087 0.05693437531590462 9.0
1.936740517616272 1.6172782182693481 0.04919757321476936 9.0
1.9202162027359009 1.5351859331130981 0.05338393896818161 10.0
1.9060508012771606 1.4637665748596191 0.04858557879924774 10.0
1.89010751247406 1.3863165378570557 0.052964720875024796 10.0
1.8759584426879883 1.3172463178634644 0.05298138037323952 9.0
2.012572765350342 1.202940583229065 0.0694422572851181 9.0
1.9962464570999146 1.1385027170181274 0.06855800747871399 9.0
1.9842028617858887 1.0873242616653442 0.05441085621714592 9.0
1.967271327972412 1.0205456018447876 0.0602446086704731 10.0
1.9529461860656738 0.9638234972953796 0.05625911056995392 10.0
1.9389431476593018 0.9074128270149231 0.05360852926969528 10.0
1.923187494277954 0.8458861112594604 0.06041888892650604 10.0
1.9088612794876099 0.7901834845542908 0.060165759176015854 10.0
1.8967008590698242 0.7447708249092102 0.04994823783636093 10.0
1.88644278049469 0.6925500631332397 0.0486719012260437 10.0
1.8740077018737793 0.6354395151138306 0.05675586685538292 10.0
1.8611303567886353 0.5844849348068237 0.05749572068452835 10.0
1.7242063283920288 0.5632830858230591 0.05602231249213219 10.0
1.7155630588531494 0.5184463858604431 0.05102287232875824 10.0
1.7052967548370361 0.4685371518135071 0.055282752960920334 10.0
1.6953905820846558 0.4190683364868164 0.06062275916337967 9.0
1.6860828399658203 0.37490928173065186 0.05823952704668045 10.0
1.6770340204238892 0.3289743959903717 0.061384446918964386 10.0
1.668365240097046 0.28530603647232056 0.060812756419181824 10.0
1.6585803031921387 0.2376737892627716 0.07008830457925797 10.0
1.651525855064392 0.20130831003189087 0.057906877249479294 9.0
1.6422713994979858 0.15612778067588806 0.06425251811742783 9.0
1.6347036361694336 0.11675824970006943 0.057582270354032516 10.0
1.6252309083938599 0.07123558223247528 0.07060187309980392 9.0
1.733985185623169 0.004515604581683874 0.06932336837053299 23.0
1.7288798093795776 -0.03867344185709953 0.07455600053071976 23.0
1.7192909717559814 -0.07690341770648956 0.07085626572370529 34.0
1.7085344791412354 -0.11764031648635864 0.07745599746704102 37.0
1.6997425556182861 -0.15335814654827118 0.07069149613380432 36.0
1.6901437044143677 -0.1915784627199173 0.06898993998765945 36.0
1.6807031631469727 -0.22852414846420288 0.06831096857786179 32.0
1.6709918975830078 -0.26643604040145874 0.06798981875181198 16.0
1.6628113985061646 -0.300470769405365 0.053906507790088654 10.0
1.6529016494750977 -0.33865851163864136 0.0599527582526207 10.0
1.6428842544555664 -0.37647244334220886 0.06668954342603683 12.0
1.6324098110198975 -0.41481682658195496 0.07901344448328018 10.0
1.5267313718795776 -0.42266857624053955 0.06433524191379547 16.0
1.5196318626403809 -0.45851919054985046 0.0632469579577446 13.0
1.5119081735610962 -0.495977520942688 0.07766944915056229 16.0
1.5049195289611816 -0.531108021736145 0.07787492871284485 14.0
1.498223900794983 -0.565131425857544 0.06872843205928802 19.0
1.4908448457717896 -0.6011918783187866 0.080048106610775 15.0
1.4838848114013672 -0.6361718773841858 0.08703107386827469 16.0
1.4772326946258545 -0.6705117225646973 0.07959888875484467 15.0
1.4708665609359741 -0.7044802904129028 0.06275709718465805 32.0
1.4665096998214722 -0.740875780582428 0.08650454878807068 28.0
1.4606044292449951 -0.7767037749290466 0.0808139443397522 20.0
1.4631725549697876 -0.8124039173126221 0.07592421770095825 25.0
3.990774631500244 9.676599502563477 1.9513264894485474 134.0
4.000938415527344 9.662664413452148 1.775040864944458 111.0
4.006677627563477 9.64706802368164 1.6026744842529297 111.0
4.01725435256958 9.642396926879883 1.4239426851272583 44.0
4.033720016479492 9.669633865356445 1.2474766969680786 65.0
4.0465192794799805 9.674290657043457 1.0720314979553223 62.0
4.053171634674072 9.662420272827148 0.8997552394866943 79.0
4.062184810638428 9.651674270629883 0.7231088876724243 79.0
4.07233190536499 9.668498039245605 0.5434290766716003 107.0
4.0836262702941895 9.666703224182129 0.36550119519233704 98.0
4.08506965637207 9.633950233459473 0.19263939559459686 51.0
4.072337627410889 9.5459623336792 0.02956143207848072 51.0
3.2410335540771484 8.40779972076416 0.12031128257513046 6.0
3.130661725997925 7.828728675842285 0.10281023383140564 6.0
3.0196402072906494 7.25679349899292 0.10254079848527908 7.0
2.9389617443084717 6.8381428718566895 0.0764775425195694 8.0
2.82440447807312 6.271603107452393 0.1102316677570343 8.0
2.7609992027282715 5.941173076629639 0.08644519746303558 8.0
2.6940627098083496 5.588519096374512 0.08099118620157242 8.0
2.6324820518493652 5.275454998016357 0.07452210783958435 7.0
2.5562307834625244 4.8844451904296875 0.1041368693113327 8.0
2.5136024951934814 4.661543369293213 0.08340413123369217 8.0
2.4608912467956543 4.3896331787109375 0.09020182490348816 8.0
2.4175479412078857 4.169279098510742 0.08394026011228561 8.0
2.6500167846679688 3.9279255867004395 0.07778985798358917 8.0
2.603904962539673 3.734248161315918 0.07443049550056458 8.0
2.558465003967285 3.5412702560424805 0.07618118822574615 8.0
2.516233205795288 3.3680849075317383 0.07630278915166855 8.0
2.473050832748413 3.18645977973938 0.08480565994977951 8.0
2.441847801208496 3.0539445877075195 0.07393081486225128 8.0
2.403749465942383 2.896591901779175 0.08092125505208969 8.0
2.372539758682251 2.765932559967041 0.07805494964122772 8.0
2.3355841636657715 2.6196489334106445 0.08864950388669968 8.0
2.311166524887085 2.5156071186065674 0.07754381000995636 8.0
2.282381772994995 2.3963704109191895 0.0808013379573822 9.0
2.2567195892333984 2.2890207767486572 0.07733026146888733 9.0
2.034721612930298 2.2134883403778076 0.0802600085735321 9.0
2.018576145172119 2.1270151138305664 0.06896159052848816 9.0
1.99952232837677 2.029352903366089 0.06893783807754517 9.0
1.9827539920806885 1.9404957294464111 0.06592533737421036 9.0
1.9633299112319946 1.848451018333435 0.0678473636507988 9.0
1.9502381086349487 1.779527187347412 0.05311662703752518 9.0
1.9332811832427979 1.6922791004180908 0.05636917054653168 9.0
1.9195473194122314 1.6204715967178345 0.04864845052361488 9.0
1.9020715951919556 1.5310543775558472 0.0596095472574234 10.0
1.8891762495040894 1.463199257850647 0.051509782671928406 10.0
1.8745275735855103 1.3891910314559937 0.052467502653598785 10.0
1.8608607053756714 1.3200238943099976 0.05249970406293869 9.0
1.9982714653015137 1.2066773176193237 0.0689644068479538 9.0
1.982395052909851 1.1421269178390503 0.06809508800506592 9.0
1.9707069396972656 1.0908628702163696 0.0539596751332283 10.0
1.954242467880249 1.0239688158035278 0.05980890244245529 10.0
1.9403128623962402 0.9671473503112793 0.05583654344081879 10.0
1.9267034530639648 0.9106398820877075 0.05319899320602417 10.0
1.9104747772216797 0.8460448980331421 0.06395010650157928 10.0
1.8983304500579834 0.7961018681526184 0.055806297808885574 10.0
1.8847222328186035 0.7448718547821045 0.05360156297683716 10.0
1.8748371601104736 0.6926462054252625 0.052384547889232635 10.0
1.863667607307434 0.6382207870483398 0.05640881881117821 10.0
1.850304365158081 0.5845416784286499 0.061324965208768845 10.0
1.7143731117248535 0.5650208592414856 0.05570998787879944 10.0
1.7054669857025146 0.5175670981407166 0.05497884377837181 10.0
1.6961250305175781 0.4701450765132904 0.054991692304611206 10.0
1.6865649223327637 0.42060941457748413 0.06034279987215996 9.0
1.678101658821106 0.37873581051826477 0.05358872935175896 10.0
1.6693617105484009 0.3326696753501892 0.05670607089996338 10.0
1.6599620580673218 0.2844524681568146 0.0650191679596901 10.0
